ply
                format ascii 1.0
                element vertex 75506
                property float x
                property float y
                property float z
                property uchar red
                property uchar green
                property uchar blue
                end_header
0.654930 -1.211268 -1.757247 111 101 92
0.661972 -1.211268 -1.757247 124 114 105
0.673759 -1.219858 -1.769710 125 115 106
0.680851 -1.219858 -1.769710 127 117 109
0.687943 -1.219858 -1.769710 128 118 111
0.690141 -1.211268 -1.757247 127 116 109
0.697183 -1.211268 -1.757247 126 116 109
0.704225 -1.211268 -1.757247 131 120 114
0.711268 -1.211268 -1.757247 131 120 114
0.713287 -1.202797 -1.744959 132 121 115
0.720280 -1.202797 -1.744959 124 113 107
0.727273 -1.202797 -1.744959 131 121 112
0.734266 -1.202797 -1.744959 127 115 106
0.741259 -1.202797 -1.744959 129 119 110
0.743056 -1.194444 -1.732841 135 125 116
0.750000 -1.194444 -1.732841 134 123 115
0.756944 -1.194444 -1.732841 139 128 122
0.763889 -1.194444 -1.732841 142 132 126
0.770833 -1.194444 -1.732841 149 140 136
0.777778 -1.194444 -1.732841 152 142 140
0.784722 -1.194444 -1.732841 154 144 142
0.791667 -1.194444 -1.732841 141 131 129
0.798611 -1.194444 -1.732841 143 133 131
0.805556 -1.194444 -1.732841 155 145 143
0.812500 -1.194444 -1.732841 144 134 132
0.819444 -1.194444 -1.732841 137 127 125
0.826389 -1.194444 -1.732841 139 129 127
0.839161 -1.202797 -1.744959 128 119 116
0.852113 -1.211268 -1.757247 131 123 120
0.859155 -1.211268 -1.757247 145 137 134
0.866197 -1.211268 -1.757247 154 146 143
0.873239 -1.211268 -1.757247 147 139 136
0.874126 -1.202797 -1.744959 154 146 143
0.881119 -1.202797 -1.744959 151 143 139
0.894366 -1.211268 -1.757247 150 142 138
0.895105 -1.202797 -1.744959 148 140 135
0.908451 -1.211268 -1.757247 149 142 136
0.909091 -1.202797 -1.744959 147 140 134
0.922535 -1.211268 -1.757247 150 143 137
0.929577 -1.211268 -1.757247 150 143 137
0.936620 -1.211268 -1.757247 150 143 138
0.950704 -1.211268 -1.757247 152 144 141
0.957747 -1.211268 -1.757247 158 150 147
0.971831 -1.211268 -1.757247 157 149 146
0.978873 -1.211268 -1.757247 159 151 148
0.985915 -1.211268 -1.757247 160 152 149
1.000000 -1.219858 -1.769710 164 156 153
1.014084 -1.211268 -1.757247 159 151 148
1.021127 -1.211268 -1.757247 159 150 148
1.028169 -1.211268 -1.757247 160 150 148
1.035211 -1.211268 -1.757247 159 151 148
1.042253 -1.211268 -1.757247 159 152 146
1.056738 -1.219858 -1.769710 161 154 148
1.063830 -1.219858 -1.769710 164 157 151
1.078571 -1.228571 -1.782351 163 155 152
1.078014 -1.219858 -1.769710 165 157 154
1.092857 -1.228571 -1.782351 163 155 152
1.092199 -1.219858 -1.769710 170 162 159
1.091549 -1.211268 -1.757247 168 160 157
1.098592 -1.211268 -1.757247 161 153 151
1.105634 -1.211268 -1.757247 162 154 152
1.111111 -1.194444 -1.732841 170 162 160
1.118056 -1.194444 -1.732841 171 163 161
1.125000 -1.194444 -1.732841 168 160 158
1.131944 -1.194444 -1.732841 174 166 164
1.138889 -1.194444 -1.732841 170 162 160
1.145833 -1.194444 -1.732841 163 155 153
1.152778 -1.194444 -1.732841 164 156 154
1.159722 -1.194444 -1.732841 170 162 160
1.166667 -1.194444 -1.732841 168 160 158
1.173611 -1.194444 -1.732841 174 166 164
1.180556 -1.194444 -1.732841 179 171 169
1.195804 -1.202797 -1.744959 177 169 167
1.194444 -1.194444 -1.732841 171 163 161
1.201389 -1.194444 -1.732841 175 167 166
1.208333 -1.194444 -1.732841 176 167 168
1.215278 -1.194444 -1.732841 179 170 171
1.222222 -1.194444 -1.732841 181 172 173
1.229167 -1.194444 -1.732841 179 170 171
1.236111 -1.194444 -1.732841 182 173 174
1.243056 -1.194444 -1.732841 180 171 172
1.250000 -1.194444 -1.732841 179 170 171
1.256944 -1.194444 -1.732841 179 170 171
1.263889 -1.194444 -1.732841 182 174 176
1.302817 -1.211268 -1.757247 182 176 178
1.309859 -1.211268 -1.757247 189 183 185
1.316901 -1.211268 -1.757247 180 174 176
1.323944 -1.211268 -1.757247 179 173 175
-0.786585 -1.054878 -1.521519 43 43 44
-0.780488 -1.054878 -1.521519 41 39 42
-0.769697 -1.048485 -1.512298 54 52 55
-0.763636 -1.048485 -1.512298 43 41 44
-0.757576 -1.048485 -1.512298 58 56 58
-0.751515 -1.048485 -1.512298 76 74 75
-0.745455 -1.048485 -1.512298 60 58 60
-0.739394 -1.048485 -1.512298 38 36 38
-0.733333 -1.048485 -1.512298 36 34 37
-0.731707 -1.054878 -1.521519 40 37 43
-0.725610 -1.054878 -1.521519 39 36 42
-0.719512 -1.054878 -1.521519 44 41 47
-0.713415 -1.054878 -1.521519 40 37 42
-0.711656 -1.061350 -1.530853 39 36 41
-0.705521 -1.061350 -1.530853 43 39 44
-0.699386 -1.061350 -1.530853 40 36 42
-0.693252 -1.061350 -1.530853 43 38 45
-0.687117 -1.061350 -1.530853 52 48 54
-0.685185 -1.067901 -1.540303 50 46 52
-0.679012 -1.067901 -1.540303 36 31 37
-0.677019 -1.074534 -1.549870 41 34 41
-0.670807 -1.074534 -1.549870 44 39 45
-0.664596 -1.074534 -1.549870 43 39 45
-0.658385 -1.074534 -1.549870 44 41 46
-0.656250 -1.081250 -1.559557 47 41 46
-0.650000 -1.081250 -1.559557 42 38 38
-0.639752 -1.074534 -1.549870 38 34 32
-0.637500 -1.081250 -1.559557 47 44 40
-0.627329 -1.074534 -1.549870 50 46 45
-0.625000 -1.081250 -1.559557 50 46 46
-0.618750 -1.081250 -1.559557 55 51 50
-0.612500 -1.081250 -1.559557 49 45 46
-0.610063 -1.088050 -1.569365 38 33 37
-0.603774 -1.088050 -1.569365 41 36 39
-0.593750 -1.081250 -1.559557 45 41 42
-0.587500 -1.081250 -1.559557 46 42 44
-0.584906 -1.088050 -1.569365 41 36 40
-0.575000 -1.081250 -1.559557 39 34 38
-0.568750 -1.081250 -1.559557 43 38 42
-0.566038 -1.088050 -1.569365 47 43 45
-0.559748 -1.088050 -1.569365 46 41 41
-0.553459 -1.088050 -1.569365 50 45 44
-0.543750 -1.081250 -1.559557 47 42 42
-0.537500 -1.081250 -1.559557 44 39 42
-0.534591 -1.088050 -1.569365 49 45 48
-0.528302 -1.088050 -1.569365 52 46 48
-0.522013 -1.088050 -1.569365 51 45 46
-0.515723 -1.088050 -1.569365 49 45 44
-0.509434 -1.088050 -1.569365 50 46 45
-0.300000 -0.823810 -1.188234 15 40 44
-0.295238 -0.823810 -1.188234 15 40 44
-0.289100 -0.819905 -1.182602 15 40 44
-0.191057 -0.703252 -1.014346 14 42 43
-0.186992 -0.703252 -1.014346 14 42 42
-0.182927 -0.703252 -1.014346 16 45 43
-0.178862 -0.703252 -1.014346 14 42 40
-0.174797 -0.703252 -1.014346 14 42 40
-0.170732 -0.703252 -1.014346 13 41 42
-0.166667 -0.703252 -1.014346 16 42 45
-0.162602 -0.703252 -1.014346 20 41 48
-0.157895 -0.700405 -1.010239 32 50 61
-0.154472 -0.703252 -1.014346 73 96 110
-0.149798 -0.700405 -1.010239 90 120 140
-0.145749 -0.700405 -1.010239 92 122 142
-0.141700 -0.700405 -1.010239 104 132 148
-0.137652 -0.700405 -1.010239 111 138 153
-0.133603 -0.700405 -1.010239 107 136 147
-0.129555 -0.700405 -1.010239 108 137 146
-0.126016 -0.703252 -1.014346 122 151 158
-0.122449 -0.706122 -1.018486 123 152 158
-0.118367 -0.706122 -1.018486 124 150 156
-0.114286 -0.706122 -1.018486 126 151 158
-0.110204 -0.706122 -1.018486 125 149 158
-0.106122 -0.706122 -1.018486 132 156 164
-0.102041 -0.706122 -1.018486 126 154 161
-0.098361 -0.709016 -1.022660 108 141 149
-0.094262 -0.709016 -1.022660 91 128 143
-0.090164 -0.709016 -1.022660 75 110 139
-0.086066 -0.709016 -1.022660 75 110 141
-0.081967 -0.709016 -1.022660 78 111 143
-0.077869 -0.709016 -1.022660 80 112 142
-0.073770 -0.709016 -1.022660 78 108 137
-0.069388 -0.706122 -1.018486 78 109 136
-0.065306 -0.706122 -1.018486 75 108 132
-0.061475 -0.709016 -1.022660 74 109 130
-0.057377 -0.709016 -1.022660 80 113 133
-0.053279 -0.709016 -1.022660 89 117 135
-0.049383 -0.711934 -1.026869 94 119 133
-0.045267 -0.711934 -1.026869 95 119 129
-0.041152 -0.711934 -1.026869 89 114 119
-0.037190 -0.714876 -1.031112 98 122 125
-0.033058 -0.714876 -1.031112 98 123 124
-0.028926 -0.714876 -1.031112 106 127 127
-0.024896 -0.717842 -1.035390 120 139 138
-0.020747 -0.717842 -1.035390 135 152 152
-0.016598 -0.717842 -1.035390 148 161 161
-0.012448 -0.717842 -1.035390 144 154 156
-0.008299 -0.717842 -1.035390 82 92 94
-0.004149 -0.717842 -1.035390 32 46 46
0.000000 -0.720833 -1.039705 29 45 45
0.004167 -0.720833 -1.039705 27 45 45
0.008333 -0.720833 -1.039705 24 45 43
0.012552 -0.723849 -1.044055 25 47 45
0.016736 -0.723849 -1.044055 23 44 43
0.021008 -0.726891 -1.048442 24 45 44
0.025210 -0.726891 -1.048442 25 46 45
0.044554 -0.856436 -1.235293 27 49 47
0.055556 -0.873737 -1.260248 27 49 47
0.061538 -0.887179 -1.279636 31 52 50
0.067010 -0.891753 -1.286232 33 53 52
0.072539 -0.896373 -1.292897 35 56 54
0.078947 -0.910526 -1.313311 37 57 56
0.085561 -0.925134 -1.334380 39 59 57
0.090909 -0.925134 -1.334380 43 64 61
0.096257 -0.925134 -1.334380 46 67 66
0.101604 -0.925134 -1.334380 49 73 70
0.106952 -0.925134 -1.334380 54 82 77
0.112299 -0.925134 -1.334380 62 94 87
0.117647 -0.925134 -1.334380 57 66 66
0.122995 -0.925134 -1.334380 38 37 38
0.128342 -0.925134 -1.334380 33 32 32
0.133690 -0.925134 -1.334380 28 27 27
0.139037 -0.925134 -1.334380 24 24 23
0.145161 -0.930108 -1.341554 19 19 19
0.150538 -0.930108 -1.341554 15 14 14
0.214592 -0.742489 -1.070940 91 112 124
0.218884 -0.742489 -1.070940 84 105 120
0.224138 -0.745690 -1.075557 96 117 134
0.228448 -0.745690 -1.075557 118 138 155
0.232759 -0.745690 -1.075557 119 138 155
0.237069 -0.745690 -1.075557 135 154 172
0.241379 -0.745690 -1.075557 140 161 178
0.245690 -0.745690 -1.075557 140 160 179
0.251082 -0.748918 -1.080213 139 159 177
0.255411 -0.748918 -1.080213 163 185 200
0.260870 -0.752174 -1.084909 177 198 213
0.265217 -0.752174 -1.084909 162 183 198
0.269565 -0.752174 -1.084909 147 169 183
0.273913 -0.752174 -1.084909 172 195 210
0.278261 -0.752174 -1.084909 156 179 193
0.282609 -0.752174 -1.084909 135 157 170
0.286957 -0.752174 -1.084909 114 137 149
0.291304 -0.752174 -1.084909 124 147 157
0.295652 -0.752174 -1.084909 119 141 152
0.300000 -0.752174 -1.084909 114 136 147
0.304348 -0.752174 -1.084909 129 151 162
0.537415 -1.176871 -1.697477 125 112 104
0.547945 -1.184932 -1.709103 123 110 102
0.547297 -1.168919 -1.686007 120 106 98
0.554054 -1.168919 -1.686007 106 93 84
0.557047 -1.161074 -1.674692 106 93 84
0.567568 -1.168919 -1.686007 105 92 83
0.582192 -1.184932 -1.709103 111 100 91
0.597222 -1.201389 -1.732841 115 105 96
0.604167 -1.201389 -1.732841 109 99 90
0.611111 -1.201389 -1.732841 104 93 87
0.622378 -1.209790 -1.744959 102 91 85
0.629371 -1.209790 -1.744959 105 94 88
0.640845 -1.218310 -1.757247 107 96 89
0.643357 -1.209790 -1.744959 111 101 92
0.654930 -1.218310 -1.757247 119 109 100
0.661972 -1.218310 -1.757247 120 110 102
0.669014 -1.218310 -1.757247 122 111 104
0.676056 -1.218310 -1.757247 123 113 106
0.683099 -1.218310 -1.757247 117 106 100
0.685315 -1.209790 -1.744959 127 116 110
0.692308 -1.209790 -1.744959 123 112 106
0.699301 -1.209790 -1.744959 129 118 113
0.706294 -1.209790 -1.744959 130 119 114
0.713287 -1.209790 -1.744959 132 121 115
0.720280 -1.209790 -1.744959 135 124 118
0.727273 -1.209790 -1.744959 125 115 106
0.729167 -1.201389 -1.732841 128 117 108
0.736111 -1.201389 -1.732841 129 119 110
0.743056 -1.201389 -1.732841 120 110 101
0.744828 -1.193103 -1.720890 112 102 94
0.751724 -1.193103 -1.720890 122 112 105
0.758621 -1.193103 -1.720890 138 127 122
0.770833 -1.201389 -1.732841 138 128 125
0.777778 -1.201389 -1.732841 148 138 136
0.784722 -1.201389 -1.732841 153 143 141
0.786207 -1.193103 -1.720890 151 141 139
0.798611 -1.201389 -1.732841 149 139 137
0.800000 -1.193103 -1.720890 147 137 135
0.812500 -1.201389 -1.732841 138 128 126
0.819444 -1.201389 -1.732841 139 129 127
0.826389 -1.201389 -1.732841 139 129 127
0.833333 -1.201389 -1.732841 133 124 122
0.846154 -1.209790 -1.744959 139 131 128
0.853147 -1.209790 -1.744959 143 135 132
0.860140 -1.209790 -1.744959 142 134 131
0.867133 -1.209790 -1.744959 140 132 129
0.868056 -1.201389 -1.732841 155 147 144
0.875000 -1.201389 -1.732841 153 145 142
0.888112 -1.209790 -1.744959 150 142 139
0.888889 -1.201389 -1.732841 153 146 140
0.895833 -1.201389 -1.732841 152 145 139
0.902778 -1.201389 -1.732841 155 148 142
1.013986 -1.209790 -1.744959 159 151 149
1.020979 -1.209790 -1.744959 162 154 152
1.027972 -1.209790 -1.744959 162 154 152
1.042253 -1.218310 -1.757247 156 148 146
1.049296 -1.218310 -1.757247 161 153 150
1.056338 -1.218310 -1.757247 163 155 152
1.063380 -1.218310 -1.757247 164 156 153
1.070423 -1.218310 -1.757247 168 160 157
1.077465 -1.218310 -1.757247 168 160 155
1.084507 -1.218310 -1.757247 170 163 158
1.091549 -1.218310 -1.757247 167 159 156
1.098592 -1.218310 -1.757247 166 158 156
1.090278 -1.201389 -1.732841 169 161 159
1.097222 -1.201389 -1.732841 171 164 162
1.104167 -1.201389 -1.732841 172 165 163
1.111111 -1.201389 -1.732841 172 164 162
1.118056 -1.201389 -1.732841 174 166 164
1.125000 -1.201389 -1.732841 160 152 150
1.131944 -1.201389 -1.732841 162 154 152
1.131034 -1.193103 -1.720890 169 161 159
1.145833 -1.201389 -1.732841 172 164 162
1.152778 -1.201389 -1.732841 169 161 159
1.159722 -1.201389 -1.732841 171 163 160
1.166667 -1.201389 -1.732841 173 165 163
1.173611 -1.201389 -1.732841 171 163 162
1.180556 -1.201389 -1.732841 173 165 164
1.187500 -1.201389 -1.732841 180 171 170
1.194444 -1.201389 -1.732841 176 168 167
1.201389 -1.201389 -1.732841 174 166 165
1.208333 -1.201389 -1.732841 176 167 169
1.215278 -1.201389 -1.732841 182 173 174
1.222222 -1.201389 -1.732841 177 168 169
1.229167 -1.201389 -1.732841 175 166 167
1.236111 -1.201389 -1.732841 163 154 155
1.234483 -1.193103 -1.720890 164 155 156
1.250000 -1.201389 -1.732841 172 163 164
1.256944 -1.201389 -1.732841 177 168 169
1.263889 -1.201389 -1.732841 176 169 170
1.316901 -1.218310 -1.757247 191 185 187
1.323944 -1.218310 -1.757247 187 181 183
-0.780488 -1.060976 -1.521519 42 40 41
-0.769697 -1.054545 -1.512298 36 34 37
-0.763636 -1.054545 -1.512298 44 42 45
-0.753012 -1.048193 -1.503187 48 45 47
-0.751515 -1.054545 -1.512298 50 49 49
-0.745455 -1.054545 -1.512298 36 35 35
-0.739394 -1.054545 -1.512298 44 43 42
-0.733333 -1.054545 -1.512298 41 39 40
-0.727273 -1.054545 -1.512298 39 37 40
-0.725610 -1.060976 -1.521519 35 33 36
-0.719512 -1.060976 -1.521519 34 32 36
-0.713415 -1.060976 -1.521519 42 40 45
-0.707317 -1.060976 -1.521519 50 49 54
-0.701219 -1.060976 -1.521519 40 39 44
-0.699386 -1.067485 -1.530853 45 44 48
-0.693252 -1.067485 -1.530853 36 35 40
-0.687117 -1.067485 -1.530853 41 39 44
-0.680982 -1.067485 -1.530853 47 45 50
-0.679012 -1.074074 -1.540303 63 58 64
-0.672840 -1.074074 -1.540303 67 62 67
-0.670807 -1.080745 -1.549870 63 61 65
-0.664596 -1.080745 -1.549870 55 53 57
-0.658385 -1.080745 -1.549870 49 47 49
-0.652174 -1.080745 -1.549870 41 39 40
-0.645963 -1.080745 -1.549870 45 44 42
-0.639752 -1.080745 -1.549870 47 45 44
-0.633540 -1.080745 -1.549870 49 47 43
-0.627329 -1.080745 -1.549870 49 47 43
-0.621118 -1.080745 -1.549870 52 49 45
-0.614907 -1.080745 -1.549870 52 48 46
-0.608696 -1.080745 -1.549870 46 42 42
-0.602484 -1.080745 -1.549870 41 35 37
-0.596273 -1.080745 -1.549870 39 34 36
-0.590062 -1.080745 -1.549870 45 41 40
-0.583851 -1.080745 -1.549870 43 39 40
-0.577640 -1.080745 -1.549870 43 39 42
-0.571429 -1.080745 -1.549870 46 42 45
-0.565217 -1.080745 -1.549870 43 40 43
-0.562500 -1.087500 -1.559557 44 41 43
-0.556250 -1.087500 -1.559557 56 54 54
-0.546584 -1.080745 -1.549870 52 50 49
-0.540373 -1.080745 -1.549870 43 42 41
-0.534162 -1.080745 -1.549870 41 37 37
-0.531250 -1.087500 -1.559557 50 46 45
-0.525000 -1.087500 -1.559557 54 48 48
-0.518750 -1.087500 -1.559557 51 46 46
-0.512500 -1.087500 -1.559557 49 45 44
-0.509434 -1.094340 -1.569365 49 45 44
-0.306220 -0.832536 -1.193919 14 40 44
-0.301435 -0.832536 -1.193919 14 40 44
-0.295238 -0.828571 -1.188234 15 42 45
-0.290476 -0.828571 -1.188234 14 41 44
-0.190283 -0.704453 -1.010239 14 42 43
-0.186992 -0.707317 -1.014346 13 41 42
-0.182186 -0.704453 -1.010239 15 44 42
-0.178862 -0.707317 -1.014346 15 44 42
-0.174797 -0.707317 -1.014346 14 43 41
-0.170732 -0.707317 -1.014346 14 43 42
-0.165992 -0.704453 -1.010239 16 42 42
-0.161943 -0.704453 -1.010239 19 43 46
-0.157895 -0.704453 -1.010239 23 44 51
-0.153846 -0.704453 -1.010239 46 65 77
-0.149798 -0.704453 -1.010239 80 106 120
-0.145749 -0.704453 -1.010239 90 118 134
-0.141700 -0.704453 -1.010239 100 127 139
-0.137652 -0.704453 -1.010239 113 140 150
-0.133603 -0.704453 -1.010239 109 137 144
-0.129555 -0.704453 -1.010239 110 137 143
-0.125506 -0.704453 -1.010239 117 144 150
-0.121951 -0.707317 -1.014346 124 150 154
-0.117886 -0.707317 -1.014346 124 148 153
-0.113821 -0.707317 -1.014346 126 150 155
-0.110204 -0.710204 -1.018486 127 150 156
-0.106122 -0.710204 -1.018486 128 153 159
-0.102041 -0.710204 -1.018486 122 150 157
-0.097959 -0.710204 -1.018486 101 136 144
-0.093878 -0.710204 -1.018486 83 120 137
-0.089796 -0.710204 -1.018486 75 110 138
-0.085714 -0.710204 -1.018486 73 107 137
-0.081633 -0.710204 -1.018486 75 108 139
-0.077551 -0.710204 -1.018486 81 113 141
-0.073469 -0.710204 -1.018486 80 111 138
-0.069388 -0.710204 -1.018486 71 103 127
-0.065306 -0.710204 -1.018486 74 106 127
-0.061224 -0.710204 -1.018486 78 110 128
-0.057377 -0.713115 -1.022660 82 112 128
-0.053279 -0.713115 -1.022660 87 114 127
-0.049180 -0.713115 -1.022660 93 117 128
-0.045082 -0.713115 -1.022660 100 123 129
-0.041152 -0.716049 -1.026869 93 116 119
-0.037037 -0.716049 -1.026869 98 119 119
-0.032922 -0.716049 -1.026869 108 130 129
-0.028807 -0.716049 -1.026869 112 132 131
-0.024793 -0.719008 -1.031112 116 135 135
-0.020661 -0.719008 -1.031112 135 151 151
-0.016529 -0.719008 -1.031112 144 157 157
-0.012397 -0.719008 -1.031112 101 112 113
-0.008264 -0.719008 -1.031112 31 46 47
-0.004132 -0.719008 -1.031112 30 47 47
0.000000 -0.721992 -1.035390 26 44 44
0.004149 -0.721992 -1.035390 24 45 44
0.008333 -0.725000 -1.039705 22 45 43
0.012500 -0.725000 -1.039705 23 45 43
0.016667 -0.725000 -1.039705 23 45 43
0.020921 -0.728033 -1.044055 24 46 44
0.025105 -0.728033 -1.044055 25 47 45
0.050251 -0.874372 -1.253915 28 50 48
0.055838 -0.883249 -1.266645 29 51 49
0.061856 -0.896907 -1.286232 31 53 51
0.067010 -0.896907 -1.286232 31 53 51
0.072539 -0.901554 -1.292897 36 57 55
0.078947 -0.915789 -1.313311 36 56 55
0.085106 -0.925532 -1.327282 40 61 58
0.090426 -0.925532 -1.327282 40 64 60
0.096257 -0.930481 -1.334380 44 69 66
0.101064 -0.925532 -1.327282 50 75 72
0.106952 -0.930481 -1.334380 57 86 81
0.112299 -0.930481 -1.334380 75 101 96
0.117647 -0.930481 -1.334380 56 59 59
0.122995 -0.930481 -1.334380 55 52 51
0.128342 -0.930481 -1.334380 52 50 48
0.133690 -0.930481 -1.334380 42 41 39
0.139037 -0.930481 -1.334380 38 37 35
0.213675 -0.743590 -1.066364 87 107 118
0.217949 -0.743590 -1.066364 77 97 113
0.223176 -0.746781 -1.070940 87 108 125
0.227468 -0.746781 -1.070940 112 130 148
0.232759 -0.750000 -1.075557 128 146 165
0.236051 -0.746781 -1.070940 142 160 179
0.241379 -0.750000 -1.075557 148 166 186
0.245690 -0.750000 -1.075557 132 151 170
0.250000 -0.750000 -1.075557 140 159 179
0.255411 -0.753247 -1.080213 163 184 201
0.259740 -0.753247 -1.080213 166 187 204
0.264069 -0.753247 -1.080213 169 190 207
0.268398 -0.753247 -1.080213 149 171 187
0.272727 -0.753247 -1.080213 164 187 203
0.277056 -0.753247 -1.080213 168 191 206
0.281385 -0.753247 -1.080213 142 165 179
0.285714 -0.753247 -1.080213 130 154 166
0.290043 -0.753247 -1.080213 130 154 164
0.295652 -0.756522 -1.084909 135 159 169
0.298701 -0.753247 -1.080213 114 136 147
0.304348 -0.756522 -1.084909 120 142 154
0.308696 -0.756522 -1.084909 124 146 158
0.533784 -1.175676 -1.686007 134 121 113
0.544218 -1.183674 -1.697477 123 110 102
0.547297 -1.175676 -1.686007 128 115 106
0.550336 -1.167785 -1.674692 130 117 108
0.553333 -1.160000 -1.663527 123 110 102
0.563758 -1.167785 -1.674692 120 108 99
0.574324 -1.175676 -1.686007 123 110 102
0.589041 -1.191781 -1.709103 120 107 99
0.600000 -1.200000 -1.720890 116 106 98
0.606897 -1.200000 -1.720890 112 101 95
0.618056 -1.208333 -1.732841 115 104 98
0.625000 -1.208333 -1.732841 117 106 100
0.636364 -1.216783 -1.744959 108 98 91
0.643357 -1.216783 -1.744959 112 102 93
0.650350 -1.216783 -1.744959 116 106 97
0.657343 -1.216783 -1.744959 121 111 103
0.669014 -1.225352 -1.757247 124 113 107
0.676056 -1.225352 -1.757247 123 112 106
0.678322 -1.216783 -1.744959 125 114 108
0.680556 -1.208333 -1.732841 130 119 113
0.687500 -1.208333 -1.732841 123 112 106
0.694444 -1.208333 -1.732841 130 119 115
0.701389 -1.208333 -1.732841 132 121 117
0.708333 -1.208333 -1.732841 134 123 117
0.715278 -1.208333 -1.732841 133 122 116
0.722222 -1.208333 -1.732841 133 123 114
0.729167 -1.208333 -1.732841 136 126 117
0.731034 -1.200000 -1.720890 134 124 115
0.737931 -1.200000 -1.720890 124 114 105
0.739726 -1.191781 -1.709103 103 93 84
0.746575 -1.191781 -1.709103 112 101 94
0.753425 -1.191781 -1.709103 130 119 114
0.765517 -1.200000 -1.720890 140 129 127
0.772414 -1.200000 -1.720890 149 139 137
0.779310 -1.200000 -1.720890 151 141 139
0.786207 -1.200000 -1.720890 151 141 139
0.793103 -1.200000 -1.720890 146 136 134
0.800000 -1.200000 -1.720890 151 141 139
0.806897 -1.200000 -1.720890 140 130 128
0.819444 -1.208333 -1.732841 145 135 133
0.826389 -1.208333 -1.732841 145 135 133
0.833333 -1.208333 -1.732841 144 134 132
0.840278 -1.208333 -1.732841 144 134 132
0.847222 -1.208333 -1.732841 142 132 130
0.854167 -1.208333 -1.732841 141 131 129
0.861111 -1.208333 -1.732841 148 138 136
0.868056 -1.208333 -1.732841 147 138 136
0.875000 -1.208333 -1.732841 150 142 139
0.888112 -1.216783 -1.744959 148 140 137
0.888889 -1.208333 -1.732841 149 142 138
0.895833 -1.208333 -1.732841 151 143 139
0.902778 -1.208333 -1.732841 148 141 135
0.909722 -1.208333 -1.732841 149 142 136
0.923077 -1.216783 -1.744959 152 145 139
0.923611 -1.208333 -1.732841 161 154 148
0.930556 -1.208333 -1.732841 165 156 154
0.937500 -1.208333 -1.732841 162 154 151
0.944444 -1.208333 -1.732841 167 159 156
0.951389 -1.208333 -1.732841 167 159 156
0.958333 -1.208333 -1.732841 166 158 155
0.972028 -1.216783 -1.744959 163 155 153
0.979021 -1.216783 -1.744959 161 153 151
0.979167 -1.208333 -1.732841 162 154 152
1.000000 -1.216783 -1.744959 161 153 151
1.000000 -1.208333 -1.732841 156 148 146
1.006944 -1.208333 -1.732841 157 149 147
1.020979 -1.216783 -1.744959 160 152 150
1.027972 -1.216783 -1.744959 161 153 151
1.034965 -1.216783 -1.744959 159 151 149
1.041958 -1.216783 -1.744959 160 152 149
1.048951 -1.216783 -1.744959 161 153 150
1.063380 -1.225352 -1.757247 165 157 154
1.062937 -1.216783 -1.744959 169 161 158
1.077465 -1.225352 -1.757247 175 167 162
1.076923 -1.216783 -1.744959 172 165 160
1.083916 -1.216783 -1.744959 177 169 166
1.090909 -1.216783 -1.744959 173 165 163
1.090278 -1.208333 -1.732841 170 162 160
1.097222 -1.208333 -1.732841 174 166 164
1.104167 -1.208333 -1.732841 178 170 168
1.111111 -1.208333 -1.732841 177 169 167
1.118056 -1.208333 -1.732841 181 173 171
1.125000 -1.208333 -1.732841 184 176 174
1.131944 -1.208333 -1.732841 182 174 172
1.131034 -1.200000 -1.720890 182 174 172
1.145833 -1.208333 -1.732841 181 173 172
1.152778 -1.208333 -1.732841 174 165 165
1.159722 -1.208333 -1.732841 177 168 167
1.166667 -1.208333 -1.732841 174 166 165
1.173611 -1.208333 -1.732841 173 164 165
1.180556 -1.208333 -1.732841 173 164 165
1.187500 -1.208333 -1.732841 171 162 163
1.194444 -1.208333 -1.732841 173 164 165
1.201389 -1.208333 -1.732841 172 163 164
1.200000 -1.200000 -1.720890 172 163 164
1.215278 -1.208333 -1.732841 175 166 167
1.213793 -1.200000 -1.720890 181 172 173
1.220690 -1.200000 -1.720890 181 172 173
1.227586 -1.200000 -1.720890 183 174 175
1.226027 -1.191781 -1.709103 173 164 165
1.241379 -1.200000 -1.720890 160 150 152
1.239726 -1.191781 -1.709103 171 162 163
1.246575 -1.191781 -1.709103 173 166 167
-0.780488 -1.067073 -1.521519 44 43 42
-0.769697 -1.060606 -1.512298 37 35 37
-0.759036 -1.054217 -1.503187 38 36 39
-0.753012 -1.054217 -1.503187 40 38 40
-0.751515 -1.060606 -1.512298 39 39 39
-0.745455 -1.060606 -1.512298 36 35 33
-0.739394 -1.060606 -1.512298 38 37 36
-0.733333 -1.060606 -1.512298 41 39 39
-0.727273 -1.060606 -1.512298 45 43 43
-0.721212 -1.060606 -1.512298 46 44 45
-0.715151 -1.060606 -1.512298 37 35 38
-0.709091 -1.060606 -1.512298 45 43 46
-0.707317 -1.067073 -1.521519 35 33 37
-0.701219 -1.067073 -1.521519 35 33 38
-0.695122 -1.067073 -1.521519 38 36 41
-0.693252 -1.073620 -1.530853 39 38 43
-0.687117 -1.073620 -1.530853 42 40 45
-0.680982 -1.073620 -1.530853 39 37 41
-0.674847 -1.073620 -1.530853 43 40 43
-0.668712 -1.073620 -1.530853 49 44 48
-0.666667 -1.080247 -1.540303 53 51 53
-0.660494 -1.080247 -1.540303 51 50 51
-0.654321 -1.080247 -1.540303 44 43 43
-0.648148 -1.080247 -1.540303 47 46 46
-0.645963 -1.086957 -1.549870 46 45 43
-0.635802 -1.080247 -1.540303 49 46 45
-0.633540 -1.086957 -1.549870 48 44 41
-0.623457 -1.080247 -1.540303 47 43 41
-0.617284 -1.080247 -1.540303 44 40 39
-0.614907 -1.086957 -1.549870 48 44 43
-0.604938 -1.080247 -1.540303 58 54 53
-0.602484 -1.086957 -1.549870 47 41 41
-0.596273 -1.086957 -1.549870 47 42 42
-0.590062 -1.086957 -1.549870 44 40 39
-0.580247 -1.080247 -1.540303 49 46 45
-0.577640 -1.086957 -1.549870 49 48 47
-0.571429 -1.086957 -1.549870 46 44 45
-0.565217 -1.086957 -1.549870 57 55 58
-0.559006 -1.086957 -1.549870 45 44 47
-0.552795 -1.086957 -1.549870 79 79 82
-0.546584 -1.086957 -1.549870 94 97 97
-0.540373 -1.086957 -1.549870 67 73 72
-0.534162 -1.086957 -1.549870 40 40 41
-0.527950 -1.086957 -1.549870 50 50 48
-0.525000 -1.093750 -1.559557 49 45 44
-0.515528 -1.086957 -1.549870 45 41 40
-0.512500 -1.093750 -1.559557 44 40 39
-0.506250 -1.093750 -1.559557 50 46 46
-0.314010 -0.845411 -1.205455 16 41 45
-0.306220 -0.837321 -1.193919 14 42 45
-0.301435 -0.837321 -1.193919 13 41 44
-0.295238 -0.833333 -1.188234 13 41 44
-0.290476 -0.833333 -1.188234 14 42 45
-0.284360 -0.829384 -1.182602 13 41 44
-0.190283 -0.708502 -1.010239 14 42 43
-0.186992 -0.711382 -1.014346 15 43 43
-0.182186 -0.708502 -1.010239 15 44 42
-0.178138 -0.708502 -1.010239 15 44 42
-0.174089 -0.708502 -1.010239 16 45 43
-0.170040 -0.708502 -1.010239 14 43 42
-0.165992 -0.708502 -1.010239 16 43 44
-0.161943 -0.708502 -1.010239 17 44 45
-0.157895 -0.708502 -1.010239 19 43 47
-0.153846 -0.708502 -1.010239 28 48 55
-0.149798 -0.708502 -1.010239 61 84 91
-0.145749 -0.708502 -1.010239 84 110 116
-0.141700 -0.708502 -1.010239 97 124 128
-0.137652 -0.708502 -1.010239 110 136 140
-0.133065 -0.705645 -1.006166 115 140 144
-0.129555 -0.708502 -1.010239 114 138 141
-0.125506 -0.708502 -1.010239 120 144 147
-0.121951 -0.711382 -1.014346 125 149 152
-0.117886 -0.711382 -1.014346 124 148 151
-0.113821 -0.711382 -1.014346 123 147 150
-0.109756 -0.711382 -1.014346 125 149 153
-0.105691 -0.711382 -1.014346 128 153 157
-0.101626 -0.711382 -1.014346 120 147 152
-0.097959 -0.714286 -1.018486 99 132 138
-0.093878 -0.714286 -1.018486 77 112 128
-0.089796 -0.714286 -1.018486 74 107 134
-0.085714 -0.714286 -1.018486 74 106 134
-0.081633 -0.714286 -1.018486 75 106 135
-0.077551 -0.714286 -1.018486 80 110 137
-0.073469 -0.714286 -1.018486 81 112 136
-0.069388 -0.714286 -1.018486 75 106 128
-0.065306 -0.714286 -1.018486 74 105 123
-0.061224 -0.714286 -1.018486 79 108 123
-0.057143 -0.714286 -1.018486 84 112 125
-0.053061 -0.714286 -1.018486 88 114 124
-0.048980 -0.714286 -1.018486 93 117 125
-0.044898 -0.714286 -1.018486 100 122 126
-0.040984 -0.717213 -1.022660 105 126 128
-0.036885 -0.717213 -1.022660 102 124 122
-0.032922 -0.720165 -1.026869 112 132 131
-0.028807 -0.720165 -1.026869 117 137 136
-0.024691 -0.720165 -1.026869 118 137 135
-0.020576 -0.720165 -1.026869 133 148 148
-0.016461 -0.720165 -1.026869 110 124 125
-0.012397 -0.723140 -1.031112 35 51 52
-0.008264 -0.723140 -1.031112 29 48 48
-0.004132 -0.723140 -1.031112 26 46 46
0.000000 -0.723140 -1.031112 25 45 44
0.004149 -0.726141 -1.035390 25 46 45
0.008333 -0.729167 -1.039705 23 45 43
0.012500 -0.729167 -1.039705 23 45 43
0.016667 -0.729167 -1.039705 23 45 43
0.020921 -0.732218 -1.044055 26 48 46
0.045455 -0.883838 -1.260248 28 50 48
0.050761 -0.888325 -1.266645 30 52 50
0.056122 -0.892857 -1.273108 31 53 51
0.061856 -0.902062 -1.286232 32 54 52
0.067010 -0.902062 -1.286232 32 54 52
0.072539 -0.906736 -1.292897 35 55 54
0.078534 -0.916230 -1.306435 38 59 57
0.085106 -0.930851 -1.327282 41 62 60
0.090426 -0.930851 -1.327282 44 68 65
0.095745 -0.930851 -1.327282 47 72 69
0.101064 -0.930851 -1.327282 55 81 78
0.106383 -0.930851 -1.327282 60 90 84
0.111702 -0.930851 -1.327282 79 102 97
0.117021 -0.930851 -1.327282 62 60 58
0.122995 -0.935829 -1.334380 63 60 56
0.128342 -0.935829 -1.334380 65 60 57
0.133690 -0.935829 -1.334380 57 54 50
0.139037 -0.935829 -1.334380 51 50 46
0.213675 -0.747863 -1.066364 86 105 116
0.217949 -0.747863 -1.066364 73 94 107
0.222222 -0.747863 -1.066364 72 95 111
0.227468 -0.751073 -1.070940 96 117 136
0.231760 -0.751073 -1.070940 107 125 145
0.236051 -0.751073 -1.070940 127 146 165
0.240343 -0.751073 -1.070940 135 155 174
0.244635 -0.751073 -1.070940 132 153 172
0.250000 -0.754310 -1.075557 136 157 176
0.254310 -0.754310 -1.075557 133 154 172
0.258621 -0.754310 -1.075557 141 162 179
0.262931 -0.754310 -1.075557 166 187 204
0.268398 -0.757576 -1.080213 158 179 196
0.272727 -0.757576 -1.080213 158 180 196
0.277056 -0.757576 -1.080213 171 194 209
0.281385 -0.757576 -1.080213 163 186 199
0.285714 -0.757576 -1.080213 140 163 176
0.290043 -0.757576 -1.080213 151 175 186
0.294372 -0.757576 -1.080213 118 142 152
0.298701 -0.757576 -1.080213 111 133 144
0.303030 -0.757576 -1.080213 121 143 152
0.307359 -0.757576 -1.080213 120 143 152
0.540541 -1.182432 -1.686007 138 125 117
0.543624 -1.174497 -1.674692 138 125 117
0.550336 -1.174497 -1.674692 135 122 115
0.553333 -1.166667 -1.663527 133 120 113
0.560000 -1.166667 -1.663527 121 108 101
0.570470 -1.174497 -1.674692 119 106 98
0.581081 -1.182432 -1.686007 120 107 99
0.591837 -1.190476 -1.697477 120 109 103
0.602740 -1.198630 -1.709103 119 108 102
0.613793 -1.206897 -1.720890 116 105 99
0.620690 -1.206897 -1.720890 115 104 98
0.631944 -1.215278 -1.732841 114 104 95
0.638889 -1.215278 -1.732841 122 112 103
0.645833 -1.215278 -1.732841 120 110 102
0.652778 -1.215278 -1.732841 129 118 112
0.664336 -1.223776 -1.744959 121 110 104
0.671329 -1.223776 -1.744959 119 108 102
0.673611 -1.215278 -1.732841 128 117 111
0.675862 -1.206897 -1.720890 131 120 114
0.682759 -1.206897 -1.720890 129 118 112
0.694444 -1.215278 -1.732841 131 120 115
0.701389 -1.215278 -1.732841 134 123 117
0.703448 -1.206897 -1.720890 136 125 119
0.710345 -1.206897 -1.720890 135 124 118
0.717241 -1.206897 -1.720890 134 124 116
0.724138 -1.206897 -1.720890 139 128 120
0.731034 -1.206897 -1.720890 137 127 118
0.732877 -1.198630 -1.709103 137 127 118
0.739726 -1.198630 -1.709103 133 123 114
0.746575 -1.198630 -1.709103 137 127 120
0.753425 -1.198630 -1.709103 128 118 113
0.765517 -1.206897 -1.720890 134 124 121
0.772414 -1.206897 -1.720890 142 133 129
0.779310 -1.206897 -1.720890 156 146 144
0.780822 -1.198630 -1.709103 160 151 148
0.793103 -1.206897 -1.720890 153 143 141
0.794521 -1.198630 -1.709103 152 142 140
0.806897 -1.206897 -1.720890 143 133 131
0.813793 -1.206897 -1.720890 144 134 132
0.820690 -1.206897 -1.720890 150 140 138
0.827586 -1.206897 -1.720890 152 142 140
0.834483 -1.206897 -1.720890 148 138 136
0.841379 -1.206897 -1.720890 144 134 132
0.848276 -1.206897 -1.720890 142 132 130
0.855172 -1.206897 -1.720890 144 134 132
0.856164 -1.198630 -1.709103 148 138 136
0.868966 -1.206897 -1.720890 146 137 135
0.881944 -1.215278 -1.732841 154 146 143
0.882759 -1.206897 -1.720890 150 142 139
0.895833 -1.215278 -1.732841 154 146 143
0.896552 -1.206897 -1.720890 151 144 138
0.903448 -1.206897 -1.720890 149 142 136
0.916667 -1.215278 -1.732841 151 144 138
0.923611 -1.215278 -1.732841 156 149 143
0.930556 -1.215278 -1.732841 159 151 148
0.937500 -1.215278 -1.732841 158 150 147
0.944444 -1.215278 -1.732841 158 150 147
0.951389 -1.215278 -1.732841 157 149 147
0.958333 -1.215278 -1.732841 161 153 151
0.972028 -1.223776 -1.744959 160 152 150
0.979167 -1.215278 -1.732841 166 158 156
0.986111 -1.215278 -1.732841 161 153 151
0.993056 -1.215278 -1.732841 160 152 150
1.000000 -1.215278 -1.732841 159 151 149
1.006944 -1.215278 -1.732841 160 152 150
1.013889 -1.215278 -1.732841 159 151 149
1.020833 -1.215278 -1.732841 163 155 153
1.027778 -1.215278 -1.732841 164 156 154
1.034722 -1.215278 -1.732841 165 157 155
1.048951 -1.223776 -1.744959 166 158 155
1.055556 -1.215278 -1.732841 173 164 161
1.062500 -1.215278 -1.732841 176 166 162
1.069444 -1.215278 -1.732841 176 166 163
1.076389 -1.215278 -1.732841 176 166 164
1.083333 -1.215278 -1.732841 175 165 163
1.082759 -1.206897 -1.720890 175 166 164
1.089655 -1.206897 -1.720890 174 166 163
1.096552 -1.206897 -1.720890 177 169 166
1.103448 -1.206897 -1.720890 176 168 166
1.110345 -1.206897 -1.720890 186 178 176
1.117241 -1.206897 -1.720890 187 179 177
1.124138 -1.206897 -1.720890 187 179 177
1.123288 -1.198630 -1.709103 179 171 170
1.137931 -1.206897 -1.720890 178 169 170
1.152778 -1.215278 -1.732841 172 163 164
1.159722 -1.215278 -1.732841 171 162 163
1.166667 -1.215278 -1.732841 175 166 167
1.173611 -1.215278 -1.732841 175 166 167
1.180556 -1.215278 -1.732841 177 168 169
1.187500 -1.215278 -1.732841 177 168 169
1.186207 -1.206897 -1.720890 175 166 167
1.193103 -1.206897 -1.720890 173 164 165
1.200000 -1.206897 -1.720890 173 164 165
1.206897 -1.206897 -1.720890 174 165 166
1.213793 -1.206897 -1.720890 182 173 174
1.220690 -1.206897 -1.720890 180 171 172
1.227586 -1.206897 -1.720890 182 173 175
1.226027 -1.198630 -1.709103 181 172 173
1.241379 -1.206897 -1.720890 176 167 169
1.239726 -1.198630 -1.709103 178 169 171
1.246575 -1.198630 -1.709103 174 166 168
-0.780488 -1.073171 -1.521519 40 39 37
-0.769697 -1.066667 -1.512298 40 39 39
-0.759036 -1.060241 -1.503187 36 34 36
-0.753012 -1.060241 -1.503187 44 42 43
-0.746988 -1.060241 -1.503187 40 39 39
-0.740964 -1.060241 -1.503187 37 36 34
-0.739394 -1.066667 -1.512298 36 35 32
-0.733333 -1.066667 -1.512298 40 39 37
-0.727273 -1.066667 -1.512298 67 66 63
-0.721212 -1.066667 -1.512298 40 39 37
-0.715151 -1.066667 -1.512298 41 39 40
-0.709091 -1.066667 -1.512298 40 38 38
-0.703030 -1.066667 -1.512298 34 32 34
-0.696970 -1.066667 -1.512298 43 41 44
-0.695122 -1.073171 -1.521519 43 41 43
-0.689024 -1.073171 -1.521519 42 40 42
-0.682927 -1.073171 -1.521519 41 39 42
-0.676829 -1.073171 -1.521519 41 39 40
-0.674847 -1.079755 -1.530853 37 32 33
-0.668712 -1.079755 -1.530853 46 39 41
-0.662577 -1.079755 -1.530853 44 40 40
-0.656442 -1.079755 -1.530853 41 37 38
-0.650307 -1.079755 -1.530853 43 40 42
-0.644172 -1.079755 -1.530853 46 44 44
-0.641975 -1.086420 -1.540303 46 45 43
-0.631902 -1.079755 -1.530853 45 43 41
-0.629630 -1.086420 -1.540303 41 37 36
-0.623457 -1.086420 -1.540303 36 32 30
-0.617284 -1.086420 -1.540303 41 37 34
-0.611111 -1.086420 -1.540303 54 49 46
-0.604938 -1.086420 -1.540303 50 46 43
-0.598765 -1.086420 -1.540303 38 33 30
-0.592593 -1.086420 -1.540303 45 40 37
-0.586420 -1.086420 -1.540303 42 39 36
-0.580247 -1.086420 -1.540303 44 43 40
-0.574074 -1.086420 -1.540303 48 46 45
-0.567901 -1.086420 -1.540303 45 43 42
-0.565217 -1.093168 -1.549870 48 45 45
-0.559006 -1.093168 -1.549870 46 45 46
-0.552795 -1.093168 -1.549870 64 63 64
-0.546584 -1.093168 -1.549870 78 79 81
-0.540373 -1.093168 -1.549870 103 106 108
-0.534162 -1.093168 -1.549870 49 51 53
-0.527950 -1.093168 -1.549870 39 37 38
-0.521739 -1.093168 -1.549870 42 39 38
-0.515528 -1.093168 -1.549870 52 48 47
-0.509317 -1.093168 -1.549870 47 43 42
-0.503106 -1.093168 -1.549870 47 43 43
-0.314010 -0.850242 -1.205455 15 43 46
-0.306220 -0.842105 -1.193919 14 42 46
-0.300000 -0.838095 -1.188234 14 42 46
-0.295238 -0.838095 -1.188234 14 43 47
-0.290476 -0.838095 -1.188234 14 42 46
-0.284360 -0.834123 -1.182602 14 42 46
-0.279621 -0.834123 -1.182602 16 43 47
-0.186235 -0.712551 -1.010239 15 44 44
-0.182186 -0.712551 -1.010239 17 45 44
-0.178138 -0.712551 -1.010239 17 46 44
-0.174089 -0.712551 -1.010239 16 45 43
-0.170040 -0.712551 -1.010239 15 43 43
-0.165992 -0.712551 -1.010239 15 43 44
-0.161290 -0.709677 -1.006166 16 43 44
-0.157895 -0.712551 -1.010239 18 43 46
-0.153846 -0.712551 -1.010239 20 43 47
-0.149194 -0.709677 -1.006166 34 55 60
-0.145161 -0.709677 -1.006166 71 93 94
-0.141129 -0.709677 -1.006166 92 117 118
-0.137097 -0.709677 -1.006166 105 130 132
-0.133065 -0.709677 -1.006166 115 139 140
-0.129032 -0.709677 -1.006166 115 139 140
-0.125506 -0.712551 -1.010239 117 141 142
-0.121457 -0.712551 -1.010239 119 143 144
-0.117409 -0.712551 -1.010239 121 145 146
-0.113360 -0.712551 -1.010239 122 146 148
-0.109756 -0.715447 -1.014346 123 147 150
-0.105691 -0.715447 -1.014346 126 150 153
-0.101626 -0.715447 -1.014346 118 145 149
-0.097561 -0.715447 -1.014346 98 128 136
-0.093496 -0.715447 -1.014346 71 104 121
-0.089431 -0.715447 -1.014346 70 102 126
-0.085366 -0.715447 -1.014346 71 102 129
-0.081301 -0.715447 -1.014346 73 104 131
-0.077236 -0.715447 -1.014346 77 107 132
-0.073171 -0.715447 -1.014346 82 112 135
-0.069106 -0.715447 -1.014346 81 112 131
-0.065041 -0.715447 -1.014346 77 106 121
-0.061224 -0.718367 -1.018486 79 107 119
-0.056911 -0.715447 -1.014346 79 105 116
-0.052846 -0.715447 -1.014346 88 112 120
-0.048980 -0.718367 -1.018486 91 114 120
-0.044898 -0.718367 -1.018486 102 123 127
-0.040816 -0.718367 -1.018486 107 127 129
-0.036885 -0.721311 -1.022660 115 136 135
-0.032787 -0.721311 -1.022660 110 131 128
-0.028807 -0.724280 -1.026869 116 136 134
-0.024691 -0.724280 -1.026869 121 139 138
-0.020576 -0.724280 -1.026869 102 117 118
-0.016461 -0.724280 -1.026869 40 57 58
-0.012346 -0.724280 -1.026869 26 45 46
-0.008230 -0.724280 -1.026869 25 46 48
-0.004132 -0.727273 -1.031112 23 45 44
0.000000 -0.727273 -1.031112 24 46 44
0.004132 -0.727273 -1.031112 25 47 45
0.008299 -0.730290 -1.035390 24 46 44
0.012500 -0.733333 -1.039705 24 46 44
0.016667 -0.733333 -1.039705 25 47 45
0.040816 -0.897959 -1.273108 28 50 48
0.045918 -0.897959 -1.273108 30 52 50
0.051020 -0.897959 -1.273108 30 52 50
0.056410 -0.902564 -1.279636 32 54 52
0.061856 -0.907216 -1.286232 33 55 53
0.067358 -0.911917 -1.292897 35 56 55
0.072539 -0.911917 -1.292897 40 60 59
0.078534 -0.921466 -1.306435 39 61 59
0.085106 -0.936170 -1.327282 43 64 62
0.090426 -0.936170 -1.327282 45 69 66
0.095745 -0.936170 -1.327282 47 73 70
0.101064 -0.936170 -1.327282 57 84 81
0.106383 -0.936170 -1.327282 63 93 87
0.111702 -0.936170 -1.327282 80 96 89
0.117021 -0.936170 -1.327282 81 77 72
0.122340 -0.936170 -1.327282 79 73 67
0.127660 -0.936170 -1.327282 72 67 61
0.132979 -0.936170 -1.327282 71 68 61
0.211864 -0.745763 -1.057327 106 114 128
0.216102 -0.745763 -1.057327 98 111 128
0.222222 -0.752137 -1.066364 86 106 123
0.226496 -0.752137 -1.066364 74 99 117
0.230769 -0.752137 -1.066364 80 103 121
0.235043 -0.752137 -1.066364 102 123 142
0.239316 -0.752137 -1.066364 121 142 161
0.243590 -0.752137 -1.066364 115 136 154
0.248927 -0.755365 -1.070940 113 134 152
0.254310 -0.758621 -1.075557 121 142 158
0.258621 -0.758621 -1.075557 127 148 164
0.262931 -0.758621 -1.075557 150 171 186
0.267241 -0.758621 -1.075557 158 179 195
0.271552 -0.758621 -1.075557 153 174 191
0.275862 -0.758621 -1.075557 167 188 204
0.280172 -0.758621 -1.075557 169 191 205
0.284483 -0.758621 -1.075557 144 167 180
0.288793 -0.758621 -1.075557 138 162 173
0.294372 -0.761905 -1.080213 121 144 155
0.297414 -0.758621 -1.075557 108 131 138
0.303030 -0.761905 -1.080213 113 136 144
0.307359 -0.761905 -1.080213 126 149 157
0.536913 -1.181208 -1.674692 124 111 103
0.540000 -1.173333 -1.663527 135 122 114
0.546667 -1.173333 -1.663527 137 124 118
0.553333 -1.173333 -1.663527 136 124 118
0.560000 -1.173333 -1.663527 141 129 123
0.566667 -1.173333 -1.663527 137 125 119
0.581081 -1.189189 -1.686007 128 116 109
0.587838 -1.189189 -1.686007 133 122 116
0.594595 -1.189189 -1.686007 131 120 114
0.605442 -1.197279 -1.697477 124 112 106
0.616438 -1.205480 -1.709103 117 106 99
0.627586 -1.213793 -1.720890 124 113 104
0.634483 -1.213793 -1.720890 127 116 108
0.641379 -1.213793 -1.720890 128 117 109
0.648276 -1.213793 -1.720890 128 117 111
0.659722 -1.222222 -1.732841 131 120 114
0.666667 -1.222222 -1.732841 135 124 118
0.668966 -1.213793 -1.720890 131 120 114
0.671233 -1.205480 -1.709103 134 123 117
0.678082 -1.205480 -1.709103 135 124 118
0.689655 -1.213793 -1.720890 136 125 119
0.696552 -1.213793 -1.720890 134 123 117
0.698630 -1.205480 -1.709103 134 123 117
0.705479 -1.205480 -1.709103 143 132 126
0.712329 -1.205480 -1.709103 139 128 124
0.719178 -1.205480 -1.709103 138 127 122
0.726027 -1.205480 -1.709103 133 122 117
0.732877 -1.205480 -1.709103 128 117 112
0.739726 -1.205480 -1.709103 144 133 128
0.746575 -1.205480 -1.709103 145 135 130
0.753425 -1.205480 -1.709103 144 135 130
0.760274 -1.205480 -1.709103 142 133 128
0.767123 -1.205480 -1.709103 145 136 131
0.773973 -1.205480 -1.709103 145 135 132
0.780822 -1.205480 -1.709103 151 142 136
0.787671 -1.205480 -1.709103 151 142 137
0.794521 -1.205480 -1.709103 140 130 126
0.806897 -1.213793 -1.720890 138 128 126
0.813793 -1.213793 -1.720890 145 135 133
0.815068 -1.205480 -1.709103 142 132 131
0.827586 -1.213793 -1.720890 148 138 137
0.828767 -1.205480 -1.709103 149 139 137
0.835616 -1.205480 -1.709103 145 135 133
0.842466 -1.205480 -1.709103 139 129 127
0.849315 -1.205480 -1.709103 146 137 133
0.850340 -1.197279 -1.697477 144 135 130
0.863014 -1.205480 -1.709103 148 139 136
0.869863 -1.205480 -1.709103 151 143 140
0.876712 -1.205480 -1.709103 150 143 138
0.889655 -1.213793 -1.720890 153 146 140
0.890411 -1.205480 -1.709103 154 147 141
0.897260 -1.205480 -1.709103 153 146 140
0.910345 -1.213793 -1.720890 154 147 141
0.917241 -1.213793 -1.720890 154 147 141
0.930556 -1.222222 -1.732841 155 147 142
0.937500 -1.222222 -1.732841 157 148 145
0.944444 -1.222222 -1.732841 158 150 147
0.951389 -1.222222 -1.732841 158 150 147
0.958333 -1.222222 -1.732841 155 147 144
0.965278 -1.222222 -1.732841 156 148 145
0.972222 -1.222222 -1.732841 157 149 147
0.979167 -1.222222 -1.732841 163 154 153
0.986111 -1.222222 -1.732841 164 155 154
0.993056 -1.222222 -1.732841 165 157 155
1.000000 -1.222222 -1.732841 157 149 147
1.000000 -1.213793 -1.720890 162 154 152
1.006896 -1.213793 -1.720890 157 149 147
1.020833 -1.222222 -1.732841 163 155 153
1.020690 -1.213793 -1.720890 167 159 157
1.034722 -1.222222 -1.732841 169 161 159
1.048276 -1.213793 -1.720890 173 164 161
1.047945 -1.205480 -1.709103 174 164 163
1.054795 -1.205480 -1.709103 173 163 162
1.061644 -1.205480 -1.709103 175 165 163
1.068493 -1.205480 -1.709103 180 170 168
1.075342 -1.205480 -1.709103 183 173 171
1.082192 -1.205480 -1.709103 183 175 172
1.089041 -1.205480 -1.709103 179 171 168
1.095890 -1.205480 -1.709103 177 169 167
1.102740 -1.205480 -1.709103 185 177 175
1.109589 -1.205480 -1.709103 182 174 172
1.116438 -1.205480 -1.709103 182 174 172
1.115646 -1.197279 -1.697477 181 172 172
1.130137 -1.205480 -1.709103 178 169 171
1.144828 -1.213793 -1.720890 175 166 167
1.143836 -1.205480 -1.709103 180 171 172
1.158621 -1.213793 -1.720890 176 167 168
1.165517 -1.213793 -1.720890 180 171 172
1.172414 -1.213793 -1.720890 178 169 170
1.179310 -1.213793 -1.720890 182 173 174
1.178082 -1.205480 -1.709103 182 173 174
1.184932 -1.205480 -1.709103 178 169 170
1.191781 -1.205480 -1.709103 180 171 172
1.198630 -1.205480 -1.709103 182 173 174
1.205480 -1.205480 -1.709103 180 171 172
1.212329 -1.205480 -1.709103 179 170 171
1.219178 -1.205480 -1.709103 185 176 178
1.226027 -1.205480 -1.709103 182 173 176
1.232877 -1.205480 -1.709103 178 169 172
1.231292 -1.197279 -1.697477 179 170 173
1.229730 -1.189189 -1.686007 179 170 173
-0.780488 -1.079268 -1.521519 45 44 42
-0.769697 -1.072727 -1.512298 37 35 35
-0.754491 -1.059880 -1.494186 41 39 40
-0.748503 -1.059880 -1.494186 44 42 42
-0.746988 -1.066265 -1.503187 36 34 33
-0.740964 -1.066265 -1.503187 37 36 34
-0.734940 -1.066265 -1.503187 36 35 33
-0.733333 -1.072727 -1.512298 42 41 39
-0.727273 -1.072727 -1.512298 44 43 41
-0.721212 -1.072727 -1.512298 41 40 36
-0.715151 -1.072727 -1.512298 37 36 34
-0.704819 -1.066265 -1.503187 39 38 37
-0.703030 -1.072727 -1.512298 38 36 38
-0.696970 -1.072727 -1.512298 39 37 40
-0.690909 -1.072727 -1.512298 44 42 43
-0.684848 -1.072727 -1.512298 41 39 40
-0.678788 -1.072727 -1.512298 39 38 37
-0.676829 -1.079268 -1.521519 38 37 35
-0.670732 -1.079268 -1.521519 42 38 37
-0.664634 -1.079268 -1.521519 45 40 40
-0.658537 -1.079268 -1.521519 43 38 38
-0.652439 -1.079268 -1.521519 43 39 38
-0.650307 -1.085890 -1.530853 46 43 43
-0.644172 -1.085890 -1.530853 45 42 41
-0.638037 -1.085890 -1.530853 41 38 37
-0.631902 -1.085890 -1.530853 39 36 35
-0.625767 -1.085890 -1.530853 54 50 49
-0.619632 -1.085890 -1.530853 56 52 49
-0.613497 -1.085890 -1.530853 57 53 50
-0.607362 -1.085890 -1.530853 54 49 46
-0.601227 -1.085890 -1.530853 50 46 43
-0.595092 -1.085890 -1.530853 41 37 34
-0.588957 -1.085890 -1.530853 39 36 32
-0.586420 -1.092593 -1.540303 36 36 32
-0.576687 -1.085890 -1.530853 42 43 39
-0.574074 -1.092593 -1.540303 43 42 40
-0.567901 -1.092593 -1.540303 43 42 41
-0.561728 -1.092593 -1.540303 45 44 42
-0.559006 -1.099379 -1.549870 46 45 43
-0.549383 -1.092593 -1.540303 45 44 42
-0.543210 -1.092593 -1.540303 54 50 51
-0.537037 -1.092593 -1.540303 44 39 41
-0.534162 -1.099379 -1.549870 42 42 42
-0.527950 -1.099379 -1.549870 44 44 45
-0.521739 -1.099379 -1.549870 52 50 51
-0.515528 -1.099379 -1.549870 55 52 53
-0.509317 -1.099379 -1.549870 53 48 49
-0.503106 -1.099379 -1.549870 49 46 47
-0.306220 -0.846890 -1.193919 15 43 47
-0.300000 -0.842857 -1.188234 15 43 47
-0.295238 -0.842857 -1.188234 14 43 47
-0.289100 -0.838863 -1.182602 13 42 46
-0.284360 -0.838863 -1.182602 13 42 46
-0.279621 -0.838863 -1.182602 15 44 48
-0.185484 -0.713710 -1.006166 16 44 45
-0.182186 -0.716599 -1.010239 16 44 45
-0.178138 -0.716599 -1.010239 16 44 45
-0.174089 -0.716599 -1.010239 15 43 44
-0.170040 -0.716599 -1.010239 15 43 44
-0.165992 -0.716599 -1.010239 15 43 44
-0.161290 -0.713710 -1.006166 17 44 45
-0.157258 -0.713710 -1.006166 18 44 45
-0.153226 -0.713710 -1.006166 18 44 45
-0.149194 -0.713710 -1.006166 22 45 47
-0.145161 -0.713710 -1.006166 47 66 67
-0.141129 -0.713710 -1.006166 88 109 109
-0.137097 -0.713710 -1.006166 104 128 129
-0.133065 -0.713710 -1.006166 113 137 137
-0.129032 -0.713710 -1.006166 117 142 140
-0.125506 -0.716599 -1.010239 116 140 139
-0.121457 -0.716599 -1.010239 116 141 139
-0.117409 -0.716599 -1.010239 117 141 140
-0.113360 -0.716599 -1.010239 122 146 145
-0.109312 -0.716599 -1.010239 123 147 146
-0.105263 -0.716599 -1.010239 122 147 146
-0.101215 -0.716599 -1.010239 108 135 139
-0.097166 -0.716599 -1.010239 95 125 133
-0.093117 -0.716599 -1.010239 76 107 123
-0.089069 -0.716599 -1.010239 69 99 121
-0.085020 -0.716599 -1.010239 72 103 127
-0.081301 -0.719512 -1.014346 74 104 129
-0.077236 -0.719512 -1.014346 77 107 129
-0.072874 -0.716599 -1.010239 81 112 132
-0.068826 -0.716599 -1.010239 84 113 129
-0.064777 -0.716599 -1.010239 85 113 125
-0.060976 -0.719512 -1.014346 80 108 117
-0.056680 -0.716599 -1.010239 78 105 112
-0.052846 -0.719512 -1.014346 86 110 115
-0.048780 -0.719512 -1.014346 92 115 119
-0.044898 -0.722449 -1.018486 99 120 123
-0.040816 -0.722449 -1.018486 105 125 125
-0.036885 -0.725410 -1.022660 106 126 125
-0.032787 -0.725410 -1.022660 111 131 129
-0.028689 -0.725410 -1.022660 112 130 128
-0.024590 -0.725410 -1.022660 104 121 121
-0.020576 -0.728395 -1.026869 42 59 60
-0.016461 -0.728395 -1.026869 24 44 45
-0.012346 -0.728395 -1.026869 24 45 46
-0.008230 -0.728395 -1.026869 22 43 44
-0.004115 -0.728395 -1.026869 22 43 44
0.000000 -0.728395 -1.026869 23 44 45
0.004132 -0.731405 -1.031112 23 44 43
0.008299 -0.734440 -1.035390 25 47 45
0.012500 -0.737500 -1.039705 26 48 46
0.016667 -0.737500 -1.039705 26 48 46
0.035897 -0.907692 -1.279636 27 49 47
0.041026 -0.907692 -1.279636 28 50 48
0.046154 -0.907692 -1.279636 30 52 50
0.051546 -0.912371 -1.286232 31 53 51
0.056701 -0.912371 -1.286232 33 55 53
0.062176 -0.917098 -1.292897 35 57 55
0.067358 -0.917098 -1.292897 35 56 55
0.072539 -0.917098 -1.292897 38 59 58
0.078534 -0.926702 -1.306435 41 63 61
0.084656 -0.936508 -1.320260 44 66 64
0.089947 -0.936508 -1.320260 44 69 66
0.095745 -0.941489 -1.327282 48 75 72
0.100529 -0.936508 -1.320260 57 86 82
