ply
                format ascii 1.0
                element vertex 106275
                property float x
                property float y
                property float z
                property uchar red
                property uchar green
                property uchar blue
                end_header
-0.348315 -1.370787 -2.803698 4 4 4
-0.312500 -1.270833 -2.599262 4 4 4
-0.281553 -1.184466 -2.422613 3 3 3
-0.252252 -1.099099 -2.248010 4 4 4
-0.226891 -1.025210 -2.096883 3 3 3
-0.204724 -0.960630 -1.964796 4 4 4
-0.185185 -0.903704 -1.848364 2 2 2
-0.169014 -0.859155 -1.757247 3 3 3
-0.153333 -0.813333 -1.663527 3 3 3
-0.136646 -0.757764 -1.549870 3 3 2
-0.125000 -0.726190 -1.485292 4 3 0
-0.118343 -0.721893 -1.476503 5 3 1
-0.113772 -0.730539 -1.494186 6 3 2
-0.107143 -0.726190 -1.485292 6 2 1
-0.101190 -0.726190 -1.485292 6 1 1
-0.095238 -0.726190 -1.485292 6 3 0
-0.088757 -0.721893 -1.476503 6 3 0
-0.082840 -0.721893 -1.476503 9 4 1
-0.076923 -0.721893 -1.476503 14 9 5
-0.071006 -0.721893 -1.476503 21 16 10
-0.065089 -0.721893 -1.476503 32 22 17
-0.059172 -0.721893 -1.476503 53 31 20
-0.053254 -0.721893 -1.476503 109 66 44
-0.047337 -0.721893 -1.476503 121 71 43
-0.041420 -0.721893 -1.476503 118 69 39
-0.035503 -0.721893 -1.476503 124 74 47
-0.029586 -0.721893 -1.476503 127 77 50
-0.023669 -0.721893 -1.476503 127 77 50
-0.017751 -0.721893 -1.476503 123 74 47
-0.011834 -0.721893 -1.476503 118 70 43
-0.005882 -0.717647 -1.467818 125 77 49
0.000000 -0.717647 -1.467818 126 78 50
0.005882 -0.717647 -1.467818 123 76 44
0.011765 -0.717647 -1.467818 122 75 42
0.017544 -0.713450 -1.459234 120 71 39
0.023392 -0.713450 -1.459234 120 71 39
0.029070 -0.709302 -1.450751 115 64 33
0.034682 -0.705202 -1.442365 117 65 34
0.040462 -0.705202 -1.442365 120 68 36
0.045977 -0.701149 -1.434075 122 69 38
0.051724 -0.701149 -1.434075 121 68 37
0.057471 -0.701149 -1.434075 127 74 43
0.062857 -0.697143 -1.425881 126 73 42
0.068571 -0.697143 -1.425881 122 70 39
0.074286 -0.697143 -1.425881 115 64 33
0.080000 -0.697143 -1.425881 116 64 37
0.085714 -0.697143 -1.425881 109 61 33
0.091429 -0.697143 -1.425881 107 61 34
0.097143 -0.697143 -1.425881 123 79 55
0.102857 -0.697143 -1.425881 130 87 64
0.108571 -0.697143 -1.425881 90 51 31
0.114286 -0.697143 -1.425881 73 36 18
0.120000 -0.697143 -1.425881 81 43 27
0.125714 -0.697143 -1.425881 82 45 32
0.131429 -0.697143 -1.425881 79 46 31
0.137931 -0.701149 -1.434075 75 43 28
0.143678 -0.701149 -1.434075 70 41 25
0.149425 -0.701149 -1.434075 68 39 23
0.157895 -0.713450 -1.459234 64 36 21
0.170732 -0.743902 -1.521519 62 34 20
0.177914 -0.748466 -1.530853 59 31 19
0.184049 -0.748466 -1.530853 55 27 16
0.190184 -0.748466 -1.530853 55 29 17
0.197531 -0.753086 -1.540303 48 28 14
0.203704 -0.753086 -1.540303 50 28 16
0.209877 -0.753086 -1.540303 44 27 19
0.216049 -0.753086 -1.540303 40 25 15
0.223602 -0.757764 -1.549870 42 26 17
0.229814 -0.757764 -1.549870 45 27 20
0.237500 -0.762500 -1.559557 47 28 21
0.243750 -0.762500 -1.559557 52 27 18
0.251572 -0.767296 -1.569365 55 25 14
0.257862 -0.767296 -1.569365 59 25 11
0.265823 -0.772152 -1.579298 68 29 13
0.838983 -1.033898 -2.114653 108 59 30
0.840336 -1.025210 -2.096883 106 57 27
0.841667 -1.016667 -2.079409 105 59 26
0.829268 -0.991870 -2.028692 103 56 25
0.824000 -0.976000 -1.996233 102 55 26
0.832000 -0.976000 -1.996233 101 55 27
0.833333 -0.968254 -1.980390 98 53 26
0.885246 -1.000000 -2.045321 101 54 29
0.879032 -0.983871 -2.012331 102 55 29
0.880000 -0.976000 -1.996233 102 55 32
0.888000 -0.976000 -1.996233 100 53 30
0.896000 -0.976000 -1.996233 97 50 26
0.896825 -0.968254 -1.980390 97 51 27
0.904762 -0.968254 -1.980390 97 50 27
0.912698 -0.968254 -1.980390 94 47 25
0.920635 -0.968254 -1.980390 97 51 28
0.921260 -0.960630 -1.964796 105 60 37
0.936508 -0.968254 -1.980390 111 69 45
0.937008 -0.960630 -1.964796 122 79 55
0.937500 -0.953125 -1.949446 132 89 65
1.000000 -1.000000 -2.045321 152 110 85
1.033613 -1.025210 -2.096883 159 119 95
1.050847 -1.033898 -2.114653 165 125 101
1.059322 -1.033898 -2.114653 169 135 109
1.067797 -1.033898 -2.114653 178 147 120
1.076271 -1.033898 -2.114653 181 150 122
1.084746 -1.033898 -2.114653 191 160 132
1.102564 -1.042735 -2.132727 201 169 141
1.120690 -1.051724 -2.151113 211 179 151
1.129310 -1.051724 -2.151113 220 188 159
1.137931 -1.051724 -2.151113 227 196 166
1.136752 -1.042735 -2.132727 230 199 168
1.155172 -1.051724 -2.151113 230 200 169
1.163793 -1.051724 -2.151113 229 199 168
1.162393 -1.042735 -2.132727 228 199 167
1.181034 -1.051724 -2.151113 226 197 165
1.179487 -1.042735 -2.132727 224 195 163
1.188034 -1.042735 -2.132727 221 192 160
1.196581 -1.042735 -2.132727 219 190 158
1.205128 -1.042735 -2.132727 218 189 157
1.193277 -1.025210 -2.096883 217 188 156
1.162602 -0.991870 -2.028692 214 185 153
1.142857 -0.968254 -1.980390 213 184 152
1.275000 -1.016667 -2.079409 205 178 147
1.272727 -1.008264 -2.062224 206 179 149
-1.666667 -1.708333 -3.465682 64 59 51
-1.630137 -1.684932 -3.418207 63 58 50
-1.554054 -1.662162 -3.372015 64 59 55
-1.561644 -1.684932 -3.418207 64 59 55
-2.020000 -2.460000 -4.990582 50 42 33
-2.000000 -2.460000 -4.990582 49 40 32
-1.903846 -2.365385 -4.798636 49 38 33
-1.781818 -2.236364 -4.536893 49 38 31
-1.500000 -1.921875 -3.898892 50 40 35
-1.338028 -1.732394 -3.514494 52 42 38
-1.323944 -1.732394 -3.514494 52 42 37
-1.291667 -1.708333 -3.465682 52 43 38
-1.277778 -1.708333 -3.465682 50 41 33
-1.263889 -1.708333 -3.465682 51 42 35
-1.250000 -1.708333 -3.465682 50 40 34
-1.236111 -1.708333 -3.465682 49 40 34
-1.222222 -1.708333 -3.465682 53 43 38
-1.208333 -1.708333 -3.465682 53 44 39
-1.211268 -1.732394 -3.514494 53 43 39
-1.197183 -1.732394 -3.514494 53 42 38
-1.183099 -1.732394 -3.514494 51 40 37
-1.169014 -1.732394 -3.514494 51 42 37
-1.154930 -1.732394 -3.514494 50 41 36
-1.140845 -1.732394 -3.514494 50 42 33
-1.126761 -1.732394 -3.514494 46 38 29
-1.112676 -1.732394 -3.514494 46 37 28
-1.098592 -1.732394 -3.514494 46 37 28
-1.084507 -1.732394 -3.514494 48 38 28
-1.070423 -1.732394 -3.514494 51 41 31
-1.056338 -1.732394 -3.514494 51 41 31
-1.057143 -1.757143 -3.564701 54 43 32
-1.042857 -1.757143 -3.564701 56 44 32
-1.028571 -1.757143 -3.564701 57 45 33
-1.014286 -1.757143 -3.564701 58 46 34
-1.000000 -1.757143 -3.564701 57 45 32
-0.985714 -1.757143 -3.564701 60 48 34
-1.000000 -1.808824 -3.669546 62 50 36
-0.957143 -1.757143 -3.564701 61 49 35
-0.942857 -1.757143 -3.564701 58 46 32
-0.928571 -1.757143 -3.564701 56 44 30
-0.876712 -1.684932 -3.418207 52 40 28
-0.807692 -1.576923 -3.199091 51 39 27
-0.753086 -1.518519 -3.080606 51 38 28
-0.740741 -1.518519 -3.080606 48 35 26
-0.719512 -1.500000 -3.043038 45 32 23
-0.698795 -1.481928 -3.006375 43 30 21
-0.678571 -1.464286 -2.970584 47 34 25
-0.658824 -1.447059 -2.935637 50 37 28
-0.654762 -1.464286 -2.970584 53 40 31
-0.635294 -1.447059 -2.935637 53 40 31
-0.616279 -1.430233 -2.901501 54 41 32
-0.604651 -1.430233 -2.901501 53 40 31
-0.593023 -1.430233 -2.901501 51 38 29
-0.581395 -1.430233 -2.901501 49 37 30
-0.569767 -1.430233 -2.901501 45 38 31
-0.558140 -1.430233 -2.901501 32 39 48
-0.546512 -1.430233 -2.901501 17 32 54
-0.534884 -1.430233 -2.901501 17 28 47
-0.523256 -1.430233 -2.901501 18 26 38
-0.511628 -1.430233 -2.901501 12 20 27
-0.500000 -1.430233 -2.901501 9 14 17
-0.488372 -1.430233 -2.901501 8 10 9
-0.476744 -1.430233 -2.901501 7 9 8
-0.465116 -1.430233 -2.901501 7 7 7
-0.453488 -1.430233 -2.901501 8 8 8
-0.441860 -1.430233 -2.901501 6 6 6
-0.430233 -1.430233 -2.901501 5 5 5
-0.418605 -1.430233 -2.901501 4 4 4
-0.406977 -1.430233 -2.901501 4 4 4
-0.395349 -1.430233 -2.901501 4 4 4
-0.402439 -1.500000 -3.043038 5 3 4
-0.372093 -1.430233 -2.901501 5 3 4
-0.348315 -1.382023 -2.803698 5 3 4
-0.312500 -1.281250 -2.599262 5 3 4
-0.281553 -1.194175 -2.422613 5 3 4
-0.252252 -1.108108 -2.248010 5 3 4
-0.225000 -1.025000 -2.079409 4 3 1
-0.204724 -0.968504 -1.964796 5 4 2
-0.185185 -0.911111 -1.848364 2 2 0
-0.169014 -0.866197 -1.757247 4 3 1
-0.153333 -0.820000 -1.663527 4 3 1
-0.138365 -0.773585 -1.569365 5 3 1
-0.125749 -0.736527 -1.494186 6 3 0
-0.119048 -0.732143 -1.485292 7 2 0
-0.113772 -0.736527 -1.494186 10 4 2
-0.107143 -0.732143 -1.485292 16 9 6
-0.101190 -0.732143 -1.485292 24 16 12
-0.095238 -0.732143 -1.485292 33 24 18
-0.089286 -0.732143 -1.485292 38 29 22
-0.083333 -0.732143 -1.485292 43 34 26
-0.077381 -0.732143 -1.485292 43 34 26
-0.071006 -0.727811 -1.476503 44 33 24
-0.065089 -0.727811 -1.476503 48 34 25
-0.059172 -0.727811 -1.476503 66 39 24
-0.053254 -0.727811 -1.476503 107 61 37
-0.047337 -0.727811 -1.476503 120 70 42
-0.041420 -0.727811 -1.476503 117 67 38
-0.035503 -0.727811 -1.476503 123 73 46
-0.029586 -0.727811 -1.476503 125 75 48
-0.023669 -0.727811 -1.476503 122 72 45
-0.017751 -0.727811 -1.476503 119 71 44
-0.011834 -0.727811 -1.476503 118 71 43
-0.005917 -0.727811 -1.476503 124 77 49
0.000000 -0.723529 -1.467818 124 77 49
0.005882 -0.723529 -1.467818 122 76 43
0.011765 -0.723529 -1.467818 120 73 40
0.017544 -0.719298 -1.459234 121 72 40
0.023392 -0.719298 -1.459234 117 67 35
0.029240 -0.719298 -1.459234 117 66 35
0.034884 -0.715116 -1.450751 118 66 35
0.040462 -0.710983 -1.442365 120 67 36
0.045977 -0.706897 -1.434075 123 70 39
0.051724 -0.706897 -1.434075 122 69 38
0.057471 -0.706897 -1.434075 128 75 44
0.063218 -0.706897 -1.434075 126 73 42
0.068966 -0.706897 -1.434075 122 69 38
0.074713 -0.706897 -1.434075 117 64 33
0.080000 -0.702857 -1.425881 115 63 36
0.085714 -0.702857 -1.425881 107 59 31
0.091429 -0.702857 -1.425881 108 61 34
0.097143 -0.702857 -1.425881 116 73 49
0.102857 -0.702857 -1.425881 119 77 54
0.108571 -0.702857 -1.425881 88 46 28
0.114286 -0.702857 -1.425881 75 38 20
0.120000 -0.702857 -1.425881 83 46 29
0.125714 -0.702857 -1.425881 82 45 32
0.131429 -0.702857 -1.425881 80 45 31
0.137931 -0.706897 -1.434075 77 45 30
0.143678 -0.706897 -1.434075 75 46 30
0.149425 -0.706897 -1.434075 72 43 27
0.158824 -0.723529 -1.467818 67 38 24
0.170732 -0.750000 -1.521519 65 37 23
0.177914 -0.754601 -1.530853 59 31 20
0.184049 -0.754601 -1.530853 53 26 15
0.190184 -0.754601 -1.530853 54 28 16
0.197531 -0.759259 -1.540303 52 29 17
0.202454 -0.754601 -1.530853 48 29 20
0.209877 -0.759259 -1.540303 42 30 22
0.216049 -0.759259 -1.540303 31 25 16
0.222222 -0.759259 -1.540303 30 24 17
0.228395 -0.759259 -1.540303 33 25 20
0.236025 -0.763975 -1.549870 36 28 22
0.243750 -0.768750 -1.559557 41 31 22
0.250000 -0.768750 -1.559557 49 34 25
0.257862 -0.773585 -1.569365 55 34 25
0.265823 -0.778481 -1.579298 58 33 22
0.838983 -1.042373 -2.114653 114 65 32
0.847458 -1.042373 -2.114653 112 64 31
0.841667 -1.025000 -2.079409 109 63 30
0.829268 -1.000000 -2.028692 108 61 28
0.824000 -0.984000 -1.996233 108 62 28
0.832000 -0.984000 -1.996233 105 59 27
0.833333 -0.976190 -1.980390 103 58 26
0.885246 -1.008197 -2.045321 103 56 30
0.879032 -0.991935 -2.012331 101 54 28
0.880000 -0.984000 -1.996233 102 55 27
0.888000 -0.984000 -1.996233 103 56 28
0.896000 -0.984000 -1.996233 102 54 31
0.896825 -0.976190 -1.980390 100 52 29
0.904762 -0.976190 -1.980390 102 54 32
0.912698 -0.976190 -1.980390 101 53 31
0.920635 -0.976190 -1.980390 101 53 31
0.921260 -0.968504 -1.964796 101 54 31
0.936508 -0.976190 -1.980390 96 50 27
0.937008 -0.968504 -1.964796 94 49 26
0.991870 -1.000000 -2.028692 97 52 29
1.050847 -1.042373 -2.114653 115 73 51
1.059322 -1.042373 -2.114653 126 88 65
1.067797 -1.042373 -2.114653 140 106 81
1.076271 -1.042373 -2.114653 151 117 90
1.084746 -1.042373 -2.114653 153 119 92
1.102564 -1.051282 -2.132727 163 128 102
1.120690 -1.060345 -2.151113 167 132 105
1.129310 -1.060345 -2.151113 173 138 111
1.137931 -1.060345 -2.151113 175 141 114
1.146552 -1.060345 -2.151113 180 148 120
1.155172 -1.060345 -2.151113 194 160 133
1.163793 -1.060345 -2.151113 209 175 148
1.172414 -1.060345 -2.151113 216 184 156
1.181034 -1.060345 -2.151113 223 192 164
1.189655 -1.060345 -2.151113 227 196 168
1.188034 -1.051282 -2.132727 229 198 169
1.206897 -1.060345 -2.151113 228 197 168
1.215517 -1.060345 -2.151113 226 195 166
1.193277 -1.033613 -2.096883 224 193 162
1.162602 -1.000000 -2.028692 223 192 161
-1.643836 -1.698630 -3.418207 67 58 50
-1.608108 -1.675676 -3.372015 69 60 51
-1.589041 -1.698630 -3.418207 64 60 49
-1.554054 -1.675676 -3.372015 63 59 49
-1.561644 -1.698630 -3.418207 59 54 48
-2.061224 -2.530612 -5.092431 57 44 33
-2.000000 -2.480000 -4.990582 53 41 30
-1.903846 -2.384615 -4.798636 56 45 35
-1.814815 -2.296296 -4.620909 55 44 35
-1.338028 -1.746479 -3.514494 55 44 40
-1.323944 -1.746479 -3.514494 53 44 39
-1.291667 -1.722222 -3.465682 52 43 38
-1.277778 -1.722222 -3.465682 52 43 34
-1.263889 -1.722222 -3.465682 53 44 35
-1.250000 -1.722222 -3.465682 55 46 37
-1.236111 -1.722222 -3.465682 55 46 37
-1.222222 -1.722222 -3.465682 56 47 38
-1.208333 -1.722222 -3.465682 57 47 40
-1.211268 -1.746479 -3.514494 57 46 42
-1.197183 -1.746479 -3.514494 54 43 39
-1.183099 -1.746479 -3.514494 52 41 37
-1.169014 -1.746479 -3.514494 49 39 31
-1.154930 -1.746479 -3.514494 47 37 28
-1.140845 -1.746479 -3.514494 45 35 26
-1.126761 -1.746479 -3.514494 45 35 26
-1.112676 -1.746479 -3.514494 50 38 30
-1.098592 -1.746479 -3.514494 54 41 32
-1.084507 -1.746479 -3.514494 53 40 31
-1.070423 -1.746479 -3.514494 57 45 36
-1.056338 -1.746479 -3.514494 59 49 39
-1.042253 -1.746479 -3.514494 63 51 41
-1.042857 -1.771429 -3.564701 66 54 44
-1.028571 -1.771429 -3.564701 63 51 40
-1.014286 -1.771429 -3.564701 60 50 38
-1.000000 -1.771429 -3.564701 60 48 35
-0.985714 -1.771429 -3.564701 58 46 32
-0.985507 -1.797101 -3.616364 55 44 31
-0.943662 -1.746479 -3.514494 53 42 28
-0.929577 -1.746479 -3.514494 52 41 27
-0.890411 -1.698630 -3.418207 52 40 27
-0.831169 -1.610390 -3.240638 49 37 25
-0.777778 -1.530864 -3.080606 48 36 24
-0.756098 -1.512195 -3.043038 49 37 25
-0.743902 -1.512195 -3.043038 45 32 22
-0.731707 -1.512195 -3.043038 43 30 21
-0.710843 -1.493976 -3.006375 41 28 19
-0.690476 -1.476190 -2.970584 42 29 20
-0.670588 -1.458824 -2.935637 44 31 22
-0.658824 -1.458824 -2.935637 47 34 25
-0.647059 -1.458824 -2.935637 50 37 28
-0.635294 -1.458824 -2.935637 51 38 29
-0.616279 -1.441860 -2.901501 51 38 29
-0.597701 -1.425287 -2.868150 49 36 28
-0.593023 -1.441860 -2.901501 49 36 28
-0.581395 -1.441860 -2.901501 48 37 30
-0.569767 -1.441860 -2.901501 43 38 33
-0.558140 -1.441860 -2.901501 30 38 47
-0.546512 -1.441860 -2.901501 16 29 50
-0.534884 -1.441860 -2.901501 17 24 43
-0.523256 -1.441860 -2.901501 16 22 33
-0.511628 -1.441860 -2.901501 12 18 23
-0.500000 -1.441860 -2.901501 12 14 16
-0.488372 -1.441860 -2.901501 8 9 11
-0.476744 -1.441860 -2.901501 7 8 9
-0.465116 -1.441860 -2.901501 7 7 7
-0.453488 -1.441860 -2.901501 7 7 7
-0.441860 -1.441860 -2.901501 5 5 5
-0.430233 -1.441860 -2.901501 6 5 5
-0.418605 -1.441860 -2.901501 7 5 6
-0.406977 -1.441860 -2.901501 5 4 5
-0.400000 -1.458824 -2.935637 6 5 6
-0.402439 -1.512195 -3.043038 5 4 4
-0.372093 -1.441860 -2.901501 5 4 3
-0.352273 -1.409091 -2.835558 6 4 3
-0.312500 -1.291667 -2.599262 5 4 3
-0.281553 -1.203884 -2.422613 5 3 2
-0.252252 -1.117117 -2.248010 5 3 3
-0.226891 -1.042017 -2.096883 5 3 1
-0.204724 -0.976378 -1.964796 7 4 2
-0.185185 -0.918519 -1.848364 8 3 2
-0.169014 -0.873239 -1.757247 9 4 2
-0.152318 -0.821192 -1.652511 15 9 5
-0.138365 -0.779874 -1.569365 24 17 11
-0.126506 -0.746988 -1.503187 32 25 16
-0.119760 -0.742515 -1.494186 41 33 22
-0.114458 -0.746988 -1.503187 46 38 26
-0.107784 -0.742515 -1.494186 52 41 31
-0.101190 -0.738095 -1.485292 50 40 29
-0.095238 -0.738095 -1.485292 50 38 26
-0.089286 -0.738095 -1.485292 49 37 25
-0.083333 -0.738095 -1.485292 49 34 23
-0.077381 -0.738095 -1.485292 46 32 21
-0.071006 -0.733728 -1.476503 45 31 18
-0.065089 -0.733728 -1.476503 47 33 20
-0.059172 -0.733728 -1.476503 70 42 24
-0.053254 -0.733728 -1.476503 109 61 37
-0.047337 -0.733728 -1.476503 120 70 43
-0.041420 -0.733728 -1.476503 116 66 39
-0.035503 -0.733728 -1.476503 123 73 46
-0.029586 -0.733728 -1.476503 126 76 49
-0.023669 -0.733728 -1.476503 121 71 44
-0.017751 -0.733728 -1.476503 117 69 41
-0.011834 -0.733728 -1.476503 109 62 34
-0.005882 -0.729412 -1.467818 122 75 47
0.000000 -0.729412 -1.467818 127 80 51
0.005882 -0.729412 -1.467818 124 78 45
0.011765 -0.729412 -1.467818 120 73 40
0.017544 -0.725146 -1.459234 119 72 40
0.023392 -0.725146 -1.459234 116 68 36
0.029070 -0.720930 -1.450751 118 68 36
0.034884 -0.720930 -1.450751 116 66 34
0.040462 -0.716763 -1.442365 119 68 37
0.045977 -0.712644 -1.434075 121 69 38
0.051724 -0.712644 -1.434075 120 68 37
0.057471 -0.712644 -1.434075 126 73 42
0.062857 -0.708571 -1.425881 126 73 42
0.068966 -0.712644 -1.434075 121 68 37
0.074286 -0.708571 -1.425881 116 63 32
0.080000 -0.708571 -1.425881 117 66 38
0.085714 -0.708571 -1.425881 108 61 34
0.091429 -0.708571 -1.425881 110 63 37
0.097143 -0.708571 -1.425881 112 68 45
0.102857 -0.708571 -1.425881 116 74 51
0.108571 -0.708571 -1.425881 85 43 25
0.114286 -0.708571 -1.425881 75 38 20
0.120000 -0.708571 -1.425881 83 46 30
0.125714 -0.708571 -1.425881 82 46 32
0.131429 -0.708571 -1.425881 82 47 33
0.137931 -0.712644 -1.434075 79 47 32
0.143678 -0.712644 -1.434075 76 48 31
0.149425 -0.712644 -1.434075 71 42 26
0.158824 -0.729412 -1.467818 69 41 26
0.169697 -0.751515 -1.512298 65 37 23
0.176829 -0.756098 -1.521519 56 29 17
0.182927 -0.756098 -1.521519 56 29 18
0.190184 -0.760736 -1.530853 59 32 21
0.196319 -0.760736 -1.530853 57 31 19
0.202454 -0.760736 -1.530853 52 32 21
0.208589 -0.760736 -1.530853 40 29 21
0.216049 -0.765432 -1.540303 23 18 13
0.222222 -0.765432 -1.540303 22 21 19
0.228395 -0.765432 -1.540303 27 24 22
0.234568 -0.765432 -1.540303 27 25 21
0.242236 -0.770186 -1.549870 28 25 20
0.250000 -0.775000 -1.559557 30 26 21
0.256250 -0.775000 -1.559557 36 27 19
0.265823 -0.784810 -1.579298 43 30 20
0.830508 -1.050847 -2.114653 117 67 34
0.838983 -1.050847 -2.114653 117 67 34
0.840336 -1.042017 -2.096883 114 64 31
0.841667 -1.033333 -2.079409 113 63 30
0.829268 -1.008130 -2.028692 113 65 32
0.824000 -0.992000 -1.996233 113 67 34
0.838710 -1.000000 -2.012331 110 64 31
0.840000 -0.992000 -1.996233 112 66 33
0.848000 -0.992000 -1.996233 114 68 35
0.892562 -1.024793 -2.062224 111 61 34
0.886179 -1.008130 -2.028692 106 56 29
0.880000 -0.992000 -1.996233 105 58 30
0.888000 -0.992000 -1.996233 108 61 33
0.896000 -0.992000 -1.996233 106 59 32
0.896825 -0.984127 -1.980390 105 58 32
0.904762 -0.984127 -1.980390 106 56 33
0.912698 -0.984127 -1.980390 106 56 33
0.920635 -0.984127 -1.980390 106 57 33
0.921260 -0.976378 -1.964796 104 56 32
0.929134 -0.976378 -1.964796 101 54 29
0.937008 -0.976378 -1.964796 98 51 27
0.937500 -0.968750 -1.949446 94 47 25
0.976000 -0.992000 -1.996233 95 50 27
1.059829 -1.059829 -2.132727 89 45 23
1.059322 -1.050847 -2.114653 85 43 20
1.067797 -1.050847 -2.114653 90 50 27
1.076271 -1.050847 -2.114653 93 56 31
1.084746 -1.050847 -2.114653 103 65 40
1.102564 -1.059829 -2.132727 114 74 49
1.120690 -1.068966 -2.151113 124 84 59
1.129310 -1.068966 -2.151113 134 94 69
1.137931 -1.068966 -2.151113 142 104 79
1.146552 -1.068966 -2.151113 155 118 93
1.155172 -1.068966 -2.151113 160 125 99
1.163793 -1.068966 -2.151113 168 133 107
1.162393 -1.059829 -2.132727 174 142 115
1.170940 -1.059829 -2.132727 179 147 120
1.179487 -1.059829 -2.132727 182 150 122
1.188034 -1.059829 -2.132727 192 160 132
1.196581 -1.059829 -2.132727 200 169 140
1.205128 -1.059829 -2.132727 209 178 149
1.193277 -1.042017 -2.096883 217 186 155
1.153226 -1.000000 -2.012331 224 192 162
-1.643836 -1.712329 -3.418207 64 55 46
-1.608108 -1.689189 -3.372015 62 52 43
-1.594595 -1.689189 -3.372015 59 50 40
-1.560000 -1.666667 -3.327055 58 49 39
-1.567568 -1.689189 -3.372015 52 48 37
-1.533333 -1.666667 -3.327055 49 45 35
-1.540541 -1.689189 -3.372015 50 44 38
-2.040816 -2.551020 -5.092431 60 46 34
-1.903846 -2.403846 -4.798636 62 48 37
-1.319444 -1.736111 -3.465682 59 46 37
-1.287671 -1.712329 -3.418207 56 43 36
-1.273973 -1.712329 -3.418207 56 44 37
-1.260274 -1.712329 -3.418207 54 44 34
-1.246575 -1.712329 -3.418207 53 43 33
-1.250000 -1.736111 -3.465682 54 44 35
-1.236111 -1.736111 -3.465682 55 45 36
-1.222222 -1.736111 -3.465682 54 45 35
-1.208333 -1.736111 -3.465682 56 45 37
-1.194444 -1.736111 -3.465682 56 44 38
-1.197183 -1.760563 -3.514494 54 42 36
-1.183099 -1.760563 -3.514494 49 37 32
-1.169014 -1.760563 -3.514494 48 37 28
-1.154930 -1.760563 -3.514494 49 38 30
-1.140845 -1.760563 -3.514494 50 39 30
-1.126761 -1.760563 -3.514494 54 43 34
-1.112676 -1.760563 -3.514494 59 46 38
-1.098592 -1.760563 -3.514494 62 49 41
-1.084507 -1.760563 -3.514494 67 54 45
-1.070423 -1.760563 -3.514494 67 55 46
-1.056338 -1.760563 -3.514494 65 55 45
-1.042253 -1.760563 -3.514494 65 53 44
-1.042857 -1.785714 -3.564701 66 53 44
-1.028571 -1.785714 -3.564701 59 48 37
-1.014286 -1.785714 -3.564701 55 45 33
-1.000000 -1.785714 -3.564701 55 43 31
-0.985714 -1.785714 -3.564701 55 43 31
-0.971429 -1.785714 -3.564701 51 41 29
-0.917808 -1.712329 -3.418207 50 40 28
-0.904110 -1.712329 -3.418207 48 38 28
-0.855263 -1.644737 -3.283278 46 36 25
-0.800000 -1.562500 -3.119114 44 34 23
-0.777778 -1.543210 -3.080606 44 34 24
-0.756098 -1.524390 -3.043038 45 35 24
-0.743902 -1.524390 -3.043038 43 33 22
-0.731707 -1.524390 -3.043038 43 33 23
-0.710843 -1.506024 -3.006375 42 34 23
-0.690476 -1.488095 -2.970584 42 33 22
-0.670588 -1.470588 -2.935637 45 35 25
-0.658824 -1.470588 -2.935637 47 36 27
-0.647059 -1.470588 -2.935637 50 37 28
-0.627907 -1.453488 -2.901501 50 37 28
-0.616279 -1.453488 -2.901501 50 37 28
-0.597701 -1.436782 -2.868150 52 39 29
-0.593023 -1.453488 -2.901501 51 38 29
-0.581395 -1.453488 -2.901501 51 39 33
-0.569767 -1.453488 -2.901501 45 41 39
-0.558140 -1.453488 -2.901501 32 41 51
-0.546512 -1.453488 -2.901501 16 27 47
-0.534884 -1.453488 -2.901501 18 24 42
-0.523256 -1.453488 -2.901501 17 22 33
-0.511628 -1.453488 -2.901501 11 16 22
-0.500000 -1.453488 -2.901501 8 10 13
-0.488372 -1.453488 -2.901501 6 7 9
-0.476744 -1.453488 -2.901501 7 7 9
-0.465116 -1.453488 -2.901501 7 7 7
-0.453488 -1.453488 -2.901501 7 7 7
-0.441860 -1.453488 -2.901501 5 5 5
-0.430233 -1.453488 -2.901501 5 5 5
-0.418605 -1.453488 -2.901501 6 4 5
-0.406977 -1.453488 -2.901501 6 5 3
-0.400000 -1.470588 -2.935637 6 5 2
-0.402439 -1.524390 -3.043038 7 3 2
-0.372093 -1.453488 -2.901501 7 2 2
-0.352273 -1.420455 -2.835558 8 4 1
-0.312500 -1.302083 -2.599262 8 4 1
-0.281553 -1.213592 -2.422613 10 4 1
-0.254545 -1.136364 -2.268446 15 10 6
-0.226891 -1.050420 -2.096883 23 16 11
-0.204724 -0.984252 -1.964796 30 23 14
-0.183824 -0.919118 -1.834773 39 30 22
-0.169014 -0.880282 -1.757247 47 38 29
-0.153333 -0.833333 -1.663527 50 41 28
-0.138365 -0.786164 -1.569365 52 41 28
-0.126506 -0.753012 -1.503187 52 39 26
-0.120482 -0.753012 -1.503187 52 39 26
-0.114458 -0.753012 -1.503187 52 39 25
-0.107784 -0.748503 -1.494186 52 38 25
-0.101796 -0.748503 -1.494186 49 35 22
-0.095808 -0.748503 -1.494186 49 36 22
-0.089286 -0.744048 -1.485292 47 33 20
-0.083333 -0.744048 -1.485292 48 33 19
-0.077381 -0.744048 -1.485292 49 34 20
-0.071429 -0.744048 -1.485292 47 34 18
-0.065476 -0.744048 -1.485292 45 31 15
-0.059172 -0.739645 -1.476503 73 44 25
-0.053254 -0.739645 -1.476503 114 66 42
-0.047337 -0.739645 -1.476503 122 72 46
-0.041420 -0.739645 -1.476503 116 66 40
-0.035503 -0.739645 -1.476503 124 74 47
-0.029586 -0.739645 -1.476503 124 74 47
-0.023669 -0.739645 -1.476503 121 71 44
-0.017751 -0.739645 -1.476503 114 66 38
-0.011834 -0.739645 -1.476503 99 52 24
-0.005882 -0.735294 -1.467818 115 68 40
0.000000 -0.735294 -1.467818 126 79 50
0.005882 -0.735294 -1.467818 122 76 43
0.011765 -0.735294 -1.467818 120 74 41
0.017544 -0.730994 -1.459234 119 73 40
0.023392 -0.730994 -1.459234 116 69 36
0.029070 -0.726744 -1.450751 115 66 34
0.034682 -0.722543 -1.442365 115 65 33
0.040462 -0.722543 -1.442365 117 66 35
0.045977 -0.718391 -1.434075 121 70 39
0.051724 -0.718391 -1.434075 118 67 36
0.057143 -0.714286 -1.425881 123 71 40
0.062857 -0.714286 -1.425881 125 72 41
0.068571 -0.714286 -1.425881 121 68 37
0.074286 -0.714286 -1.425881 115 62 31
0.080000 -0.714286 -1.425881 116 65 36
0.085714 -0.714286 -1.425881 107 59 35
0.091429 -0.714286 -1.425881 109 63 38
0.097143 -0.714286 -1.425881 113 67 47
0.102857 -0.714286 -1.425881 115 72 51
0.108571 -0.714286 -1.425881 84 42 26
0.114286 -0.714286 -1.425881 79 42 24
0.120000 -0.714286 -1.425881 83 46 29
0.125714 -0.714286 -1.425881 82 46 32
0.131429 -0.714286 -1.425881 81 47 32
0.137931 -0.718391 -1.434075 80 48 33
0.143678 -0.718391 -1.434075 77 47 31
0.149425 -0.718391 -1.434075 77 48 32
0.158824 -0.735294 -1.467818 73 45 30
0.169697 -0.757576 -1.512298 69 40 26
0.176829 -0.762195 -1.521519 60 32 20
0.182927 -0.762195 -1.521519 58 30 19
0.190184 -0.766871 -1.530853 63 36 25
0.196319 -0.766871 -1.530853 60 33 22
0.202454 -0.766871 -1.530853 54 35 24
0.208589 -0.766871 -1.530853 31 20 14
0.216049 -0.771605 -1.540303 12 7 6
0.222222 -0.771605 -1.540303 8 8 9
0.228395 -0.771605 -1.540303 10 10 11
0.234568 -0.771605 -1.540303 16 16 15
0.242236 -0.776398 -1.549870 21 21 20
0.248447 -0.776398 -1.549870 23 24 21
0.256250 -0.781250 -1.559557 26 26 19
0.264151 -0.786164 -1.569365 29 26 17
0.822034 -1.059322 -2.114653 112 61 29
0.830508 -1.059322 -2.114653 114 63 30
0.838983 -1.059322 -2.114653 113 62 30
0.840336 -1.050420 -2.096883 112 62 29
0.841667 -1.041667 -2.079409 112 62 30
0.842975 -1.033058 -2.062224 112 64 32
0.837398 -1.016260 -2.028692 114 67 36
0.845528 -1.016260 -2.028692 111 65 33
0.846774 -1.008065 -2.012331 113 67 35
0.848000 -1.000000 -1.996233 113 66 34
0.892562 -1.033058 -2.062224 112 62 35
0.893443 -1.024590 -2.045321 110 60 33
0.894309 -1.016260 -2.028692 110 63 35
0.902439 -1.016260 -2.028692 111 64 36
0.903226 -1.008065 -2.012331 110 63 35
0.904000 -1.000000 -1.996233 110 62 34
0.904762 -0.992063 -1.980390 109 60 32
0.912698 -0.992063 -1.980390 110 60 34
0.920635 -0.992063 -1.980390 110 60 35
0.921260 -0.984252 -1.964796 107 59 33
0.929134 -0.984252 -1.964796 103 56 30
0.976000 -1.000000 -1.996233 95 49 26
1.059829 -1.068376 -2.132727 94 50 26
1.068376 -1.068376 -2.132727 94 52 28
1.067797 -1.059322 -2.114653 96 54 31
1.076271 -1.059322 -2.114653 91 49 27
1.084746 -1.059322 -2.114653 91 49 26
1.102564 -1.068376 -2.132727 92 50 26
1.120690 -1.077586 -2.151113 96 54 30
1.129310 -1.077586 -2.151113 89 47 23
1.137931 -1.077586 -2.151113 90 49 26
1.146552 -1.077586 -2.151113 98 57 35
1.155172 -1.077586 -2.151113 107 68 45
1.163793 -1.077586 -2.151113 126 88 65
1.162393 -1.068376 -2.132727 135 99 75
1.181034 -1.077586 -2.151113 145 109 85
1.179487 -1.068376 -2.132727 177 141 117
1.188034 -1.068376 -2.132727 164 128 104
1.196581 -1.068376 -2.132727 170 134 108
1.205128 -1.068376 -2.132727 175 140 114
1.193277 -1.050420 -2.096883 177 142 115
1.153226 -1.008065 -2.012331 185 150 123
-1.586667 -1.680000 -3.327055 57 47 38
-1.581081 -1.702703 -3.372015 52 43 33
-1.567568 -1.702703 -3.372015 50 42 31
-1.533333 -1.680000 -3.327055 51 43 32
-1.540541 -1.702703 -3.372015 50 41 32
-1.547945 -1.726027 -3.418207 53 44 34
-1.301370 -1.726027 -3.418207 57 44 34
-1.270270 -1.702703 -3.372015 53 41 29
-1.256757 -1.702703 -3.372015 55 43 32
-1.260274 -1.726027 -3.418207 51 41 31
-1.246575 -1.726027 -3.418207 52 42 32
-1.232877 -1.726027 -3.418207 51 41 31
-1.236111 -1.750000 -3.465682 52 42 32
-1.222222 -1.750000 -3.465682 54 44 34
-1.208333 -1.750000 -3.465682 55 43 34
-1.194444 -1.750000 -3.465682 57 44 36
-1.180556 -1.750000 -3.465682 56 43 35
-1.183099 -1.774648 -3.514494 55 42 34
-1.169014 -1.774648 -3.514494 58 45 37
-1.154930 -1.774648 -3.514494 61 48 40
-1.140845 -1.774648 -3.514494 64 51 43
-1.126761 -1.774648 -3.514494 67 54 46
-1.112676 -1.774648 -3.514494 62 52 43
-1.098592 -1.774648 -3.514494 61 50 41
-1.084507 -1.774648 -3.514494 63 50 41
-1.070423 -1.774648 -3.514494 61 49 39
-1.056338 -1.774648 -3.514494 58 48 38
-1.042253 -1.774648 -3.514494 57 47 37
-1.028169 -1.774648 -3.514494 58 47 37
-1.014084 -1.774648 -3.514494 56 44 33
-1.014286 -1.800000 -3.564701 54 42 31
-0.985915 -1.774648 -3.514494 51 40 29
-0.971831 -1.774648 -3.514494 47 37 26
-0.944444 -1.750000 -3.465682 44 35 25
-0.905405 -1.702703 -3.372015 46 36 27
-0.880000 -1.680000 -3.327055 45 35 29
-0.833333 -1.615385 -3.199091 45 35 29
-0.790123 -1.555556 -3.080606 46 36 30
-0.768293 -1.536585 -3.043038 46 36 29
-0.756098 -1.536585 -3.043038 47 37 29
-0.734940 -1.518072 -3.006375 47 37 28
-0.722892 -1.518072 -3.006375 52 42 32
-0.710843 -1.518072 -3.006375 47 39 28
-0.690476 -1.500000 -2.970584 47 39 28
-0.670588 -1.482353 -2.935637 48 39 30
-0.658824 -1.482353 -2.935637 50 40 31
-0.647059 -1.482353 -2.935637 53 40 31
-0.627907 -1.465116 -2.901501 55 42 33
-0.616279 -1.465116 -2.901501 54 41 32
-0.597701 -1.448276 -2.868150 54 42 33
-0.593023 -1.465116 -2.901501 53 44 36
-0.581395 -1.465116 -2.901501 52 44 41
-0.569767 -1.465116 -2.901501 41 41 45
-0.558140 -1.465116 -2.901501 28 36 46
-0.546512 -1.465116 -2.901501 13 22 38
-0.534884 -1.465116 -2.901501 15 20 35
-0.523256 -1.465116 -2.901501 15 19 28
-0.511628 -1.465116 -2.901501 12 15 21
-0.500000 -1.465116 -2.901501 7 11 12
-0.488372 -1.465116 -2.901501 7 8 10
-0.476744 -1.465116 -2.901501 7 8 9
-0.465116 -1.465116 -2.901501 7 7 7
-0.453488 -1.465116 -2.901501 7 7 7
-0.441860 -1.465116 -2.901501 5 5 5
-0.435294 -1.482353 -2.935637 7 6 4
-0.418605 -1.465116 -2.901501 6 5 1
-0.411765 -1.482353 -2.935637 8 5 1
-0.400000 -1.482353 -2.935637 11 7 2
-0.402439 -1.536585 -3.043038 14 8 5
-0.372093 -1.465116 -2.901501 21 14 12
-0.352273 -1.431818 -2.835558 29 20 15
-0.312500 -1.312500 -2.599262 41 31 26
-0.281553 -1.223301 -2.422613 47 36 27
-0.254545 -1.145455 -2.268446 49 38 29
-0.226891 -1.058824 -2.096883 48 37 24
-0.204724 -0.992126 -1.964796 51 41 25
-0.183824 -0.926471 -1.834773 52 40 26
-0.169014 -0.887324 -1.757247 54 41 26
-0.153333 -0.840000 -1.663527 54 41 25
-0.127273 -0.763636 -1.512298 52 38 25
-0.120482 -0.759036 -1.503187 50 36 23
-0.114458 -0.759036 -1.503187 50 36 23
-0.107784 -0.754491 -1.494186 48 34 21
-0.101796 -0.754491 -1.494186 48 34 21
-0.095808 -0.754491 -1.494186 47 33 20
-0.089286 -0.750000 -1.485292 47 33 20
-0.083333 -0.750000 -1.485292 48 34 21
-0.077381 -0.750000 -1.485292 49 35 21
-0.071429 -0.750000 -1.485292 47 34 18
-0.065476 -0.750000 -1.485292 47 33 16
-0.059172 -0.745562 -1.476503 78 49 28
-0.053571 -0.750000 -1.485292 117 69 45
-0.047337 -0.745562 -1.476503 125 75 50
-0.041420 -0.745562 -1.476503 117 67 41
-0.035503 -0.745562 -1.476503 125 75 48
-0.029586 -0.745562 -1.476503 124 74 47
-0.023669 -0.745562 -1.476503 120 70 43
-0.017751 -0.745562 -1.476503 112 65 37
-0.011834 -0.745562 -1.476503 111 64 36
-0.005882 -0.741176 -1.467818 124 77 49
0.000000 -0.741176 -1.467818 125 78 50
0.005882 -0.741176 -1.467818 120 73 45
0.011765 -0.741176 -1.467818 120 73 44
0.017544 -0.736842 -1.459234 118 71 42
0.023392 -0.736842 -1.459234 115 67 39
0.029070 -0.732558 -1.450751 112 63 35
0.034682 -0.728324 -1.442365 115 65 35
0.040230 -0.724138 -1.434075 119 68 37
0.045977 -0.724138 -1.434075 122 70 39
0.051724 -0.724138 -1.434075 119 67 36
0.057143 -0.720000 -1.425881 120 67 36
0.062857 -0.720000 -1.425881 123 70 39
0.068571 -0.720000 -1.425881 120 67 36
0.074286 -0.720000 -1.425881 116 63 32
0.080000 -0.720000 -1.425881 117 66 38
0.085714 -0.720000 -1.425881 107 59 35
0.091429 -0.720000 -1.425881 108 62 37
0.097143 -0.720000 -1.425881 112 67 46
0.102857 -0.720000 -1.425881 110 68 47
0.108571 -0.720000 -1.425881 86 45 28
0.114286 -0.720000 -1.425881 79 42 24
0.120000 -0.720000 -1.425881 85 48 32
0.125714 -0.720000 -1.425881 83 47 33
0.131429 -0.720000 -1.425881 81 48 33
0.137931 -0.724138 -1.434075 79 47 32
0.143678 -0.724138 -1.434075 80 50 34
0.149425 -0.724138 -1.434075 79 50 34
0.157895 -0.736842 -1.459234 72 43 29
0.169697 -0.763636 -1.512298 72 43 29
0.176829 -0.768293 -1.521519 63 35 23
0.182927 -0.768293 -1.521519 62 34 23
0.190184 -0.773006 -1.530853 63 36 25
0.196319 -0.773006 -1.530853 61 34 23
0.202454 -0.773006 -1.530853 56 36 26
0.208589 -0.773006 -1.530853 25 15 11
0.216049 -0.777778 -1.540303 9 7 4
0.222222 -0.777778 -1.540303 6 6 7
0.228395 -0.777778 -1.540303 6 6 6
0.234568 -0.777778 -1.540303 7 7 7
0.242236 -0.782609 -1.549870 9 9 9
0.248447 -0.782609 -1.549870 10 10 8
0.254658 -0.782609 -1.549870 14 14 11
0.264151 -0.792453 -1.569365 20 19 14
0.830508 -1.067797 -2.114653 116 63 32
0.831933 -1.058824 -2.096883 113 60 29
0.840336 -1.058824 -2.096883 111 59 28
0.841667 -1.050000 -2.079409 109 58 27
0.836066 -1.032787 -2.045321 108 58 29
0.837398 -1.024390 -2.028692 109 59 32
0.852459 -1.032787 -2.045321 108 58 31
0.846774 -1.016129 -2.012331 107 57 30
0.848000 -1.008000 -1.996233 109 59 32
0.892562 -1.041322 -2.062224 111 61 34
0.893443 -1.032787 -2.045321 114 64 37
0.894309 -1.024390 -2.028692 115 65 38
0.902439 -1.024390 -2.028692 112 62 35
0.903226 -1.016129 -2.012331 114 64 37
0.896825 -1.000000 -1.980390 114 65 36
0.912698 -1.000000 -1.980390 114 65 33
0.913386 -0.992126 -1.964796 113 64 33
0.936508 -1.000000 -1.980390 111 62 35
0.960630 -0.992126 -1.964796 99 53 29
1.059829 -1.076923 -2.132727 95 50 26
1.068376 -1.076923 -2.132727 97 53 30
1.067797 -1.067797 -2.114653 100 56 32
1.076271 -1.067797 -2.114653 100 55 32
1.084746 -1.067797 -2.114653 98 54 31
1.102564 -1.076923 -2.132727 95 52 27
1.120690 -1.086207 -2.151113 99 55 31
1.129310 -1.086207 -2.151113 97 54 30
1.137931 -1.086207 -2.151113 96 51 29
1.136752 -1.076923 -2.132727 94 49 27
1.155172 -1.086207 -2.151113 90 49 27
1.163793 -1.086207 -2.151113 90 49 27
1.162393 -1.076923 -2.132727 92 55 31
1.181034 -1.086207 -2.151113 94 58 33
1.179487 -1.076923 -2.132727 108 71 48
1.188034 -1.076923 -2.132727 105 68 44
1.196581 -1.076923 -2.132727 123 83 58
1.215517 -1.086207 -2.151113 134 94 69
1.193277 -1.058824 -2.096883 143 104 79
1.153226 -1.016129 -2.012331 155 116 91
-1.546667 -1.693333 -3.327055 56 43 34
-1.533333 -1.693333 -3.327055 54 42 33
-1.520000 -1.693333 -3.327055 51 42 32
-1.547945 -1.739726 -3.418207 49 40 30
-1.513514 -1.716216 -3.372015 50 41 30
-1.460526 -1.671053 -3.283278 48 39 27
-1.434211 -1.671053 -3.283278 50 38 24
-1.358974 -1.628205 -3.199091 60 48 35
-1.350649 -1.649351 -3.240638 63 51 39
-1.337662 -1.649351 -3.240638 64 50 39
-1.283784 -1.716216 -3.372015 58 44 33
-1.270270 -1.716216 -3.372015 56 42 31
-1.256757 -1.716216 -3.372015 55 41 30
-1.260274 -1.739726 -3.418207 54 42 30
-1.246575 -1.739726 -3.418207 58 46 35
-1.232877 -1.739726 -3.418207 58 46 36
-1.236111 -1.763889 -3.465682 62 49 40
-1.222222 -1.763889 -3.465682 63 51 42
-1.208333 -1.763889 -3.465682 66 53 44
-1.194444 -1.763889 -3.465682 66 53 44
-1.180556 -1.763889 -3.465682 67 54 46
-1.183099 -1.788732 -3.514494 66 53 45
-1.169014 -1.788732 -3.514494 63 50 42
-1.154930 -1.788732 -3.514494 61 48 40
-1.140845 -1.788732 -3.514494 58 45 37
-1.126761 -1.788732 -3.514494 56 43 35
-1.112676 -1.788732 -3.514494 53 42 33
-1.098592 -1.788732 -3.514494 54 42 34
-1.084507 -1.788732 -3.514494 57 44 35
-1.055556 -1.763889 -3.465682 56 45 35
-1.056338 -1.788732 -3.514494 51 41 31
-1.042253 -1.788732 -3.514494 51 41 31
-1.028169 -1.788732 -3.514494 49 39 29
-1.014084 -1.788732 -3.514494 51 39 31
-1.014286 -1.814286 -3.564701 53 40 33
-0.985915 -1.788732 -3.514494 50 39 33
-0.971831 -1.788732 -3.514494 52 42 35
-0.944444 -1.763889 -3.465682 46 37 28
-0.893333 -1.693333 -3.327055 47 38 30
-0.857143 -1.649351 -3.240638 48 39 34
-0.812500 -1.587500 -3.119114 49 40 35
-0.790123 -1.567901 -3.080606 51 42 37
-0.759036 -1.530120 -3.006375 51 42 37
-0.746988 -1.530120 -3.006375 52 43 37
-0.726190 -1.511905 -2.970584 52 43 35
-0.722892 -1.530120 -3.006375 54 45 36
-0.702381 -1.511905 -2.970584 52 47 36
-0.682353 -1.494118 -2.935637 51 47 36
-0.670588 -1.494118 -2.935637 57 48 42
-0.651163 -1.476744 -2.901501 59 50 44
-0.647059 -1.494118 -2.935637 60 50 40
-0.627907 -1.476744 -2.901501 58 48 38
-0.616279 -1.476744 -2.901501 55 46 36
-0.597701 -1.459770 -2.868150 54 49 41
-0.593023 -1.476744 -2.901501 48 46 43
-0.581395 -1.476744 -2.901501 41 42 49
-0.569767 -1.476744 -2.901501 30 34 43
-0.558140 -1.476744 -2.901501 24 31 42
-0.546512 -1.476744 -2.901501 10 19 30
-0.534884 -1.476744 -2.901501 12 16 27
-0.523256 -1.476744 -2.901501 14 18 24
-0.511628 -1.476744 -2.901501 12 15 19
-0.500000 -1.476744 -2.901501 8 10 12
-0.488372 -1.476744 -2.901501 7 8 9
-0.476744 -1.476744 -2.901501 9 10 10
-0.465116 -1.476744 -2.901501 9 9 8
-0.458824 -1.494118 -2.935637 11 9 7
-0.447059 -1.494118 -2.935637 12 8 4
-0.435294 -1.494118 -2.935637 19 14 10
-0.423529 -1.494118 -2.935637 27 21 14
-0.411765 -1.494118 -2.935637 34 26 19
-0.404762 -1.511905 -2.970584 45 36 28
-0.402439 -1.548780 -3.043038 48 39 32
-0.372093 -1.476744 -2.901501 48 40 32
-0.352273 -1.443182 -2.835558 50 40 30
-0.312500 -1.322917 -2.599262 48 38 28
-0.278846 -1.221154 -2.399318 50 38 26
-0.252252 -1.144144 -2.248010 50 38 25
-0.226891 -1.067227 -2.096883 52 40 26
-0.203125 -0.992188 -1.949446 54 42 28
-0.183824 -0.933824 -1.834773 53 41 27
-0.169014 -0.894366 -1.757247 54 41 27
-0.153333 -0.846667 -1.663527 53 39 26
-0.138365 -0.798742 -1.569365 54 40 27
-0.127273 -0.769697 -1.512298 54 40 27
-0.120482 -0.765060 -1.503187 51 37 24
-0.114458 -0.765060 -1.503187 48 34 21
-0.107784 -0.760479 -1.494186 47 33 20
-0.101796 -0.760479 -1.494186 47 33 20
-0.095808 -0.760479 -1.494186 48 34 21
-0.089286 -0.755952 -1.485292 50 36 23
-0.083333 -0.755952 -1.485292 55 40 25
-0.077381 -0.755952 -1.485292 52 37 22
-0.071429 -0.755952 -1.485292 50 37 21
-0.065476 -0.755952 -1.485292 52 36 20
-0.059172 -0.751479 -1.476503 83 51 32
-0.053571 -0.755952 -1.485292 116 68 44
-0.047619 -0.755952 -1.485292 124 74 49
-0.041420 -0.751479 -1.476503 117 67 41
-0.035503 -0.751479 -1.476503 124 74 48
-0.029586 -0.751479 -1.476503 125 75 49
-0.023669 -0.751479 -1.476503 121 71 44
-0.017751 -0.751479 -1.476503 116 68 40
-0.011834 -0.751479 -1.476503 119 71 43
-0.005882 -0.747059 -1.467818 124 76 49
0.000000 -0.747059 -1.467818 124 76 49
0.005882 -0.747059 -1.467818 120 73 46
0.011765 -0.747059 -1.467818 118 71 44
0.017544 -0.742690 -1.459234 116 69 41
0.023392 -0.742690 -1.459234 111 63 35
0.029070 -0.738372 -1.450751 109 59 32
0.034682 -0.734104 -1.442365 112 62 33
0.040230 -0.729885 -1.434075 117 66 35
0.045977 -0.729885 -1.434075 121 69 38
0.051724 -0.729885 -1.434075 120 68 36
0.057143 -0.725714 -1.425881 118 65 34
0.062857 -0.725714 -1.425881 121 68 37
0.068571 -0.725714 -1.425881 120 67 36
0.074286 -0.725714 -1.425881 118 65 34
0.080000 -0.725714 -1.425881 118 66 39
0.085714 -0.725714 -1.425881 108 60 36
0.091429 -0.725714 -1.425881 121 76 51
0.097143 -0.725714 -1.425881 115 73 51
0.102857 -0.725714 -1.425881 112 69 48
0.108571 -0.725714 -1.425881 85 46 28
0.114286 -0.725714 -1.425881 81 44 26
0.120000 -0.725714 -1.425881 85 49 33
0.125714 -0.725714 -1.425881 84 48 34
0.131429 -0.725714 -1.425881 83 49 34
0.137931 -0.729885 -1.434075 81 48 33
0.143678 -0.729885 -1.434075 80 47 32
0.149425 -0.729885 -1.434075 79 47 32
0.158824 -0.747059 -1.467818 73 43 27
0.170732 -0.774390 -1.521519 71 42 27
0.176829 -0.774390 -1.521519 65 36 24
0.182927 -0.774390 -1.521519 65 36 24
0.190184 -0.779141 -1.530853 66 38 27
0.196319 -0.779141 -1.530853 62 35 24
0.202454 -0.779141 -1.530853 57 37 28
0.208589 -0.779141 -1.530853 21 12 8
0.216049 -0.783951 -1.540303 8 6 4
0.222222 -0.783951 -1.540303 6 6 7
0.228395 -0.783951 -1.540303 5 5 5
0.234568 -0.783951 -1.540303 5 5 5
0.242236 -0.788820 -1.549870 6 6 6
0.248447 -0.788820 -1.549870 6 6 6
0.254658 -0.788820 -1.549870 7 7 7
0.264151 -0.798742 -1.569365 8 8 7
0.608108 -1.716216 -3.372015 16 16 14
0.613333 -1.693333 -3.327055 21 20 17
0.801653 -1.049587 -2.062224 113 60 29
0.823529 -1.067227 -2.096883 116 63 33
0.825000 -1.058333 -2.079409 116 63 34
0.833333 -1.058333 -2.079409 114 61 33
0.841667 -1.058333 -2.079409 109 57 28
0.836066 -1.040984 -2.045321 107 56 28
0.837398 -1.032520 -2.028692 104 53 26
0.852459 -1.040984 -2.045321 100 50 23
0.846774 -1.024194 -2.012331 100 50 23
0.848000 -1.016000 -1.996233 101 51 24
0.900000 -1.058333 -2.079409 104 53 26
0.900826 -1.049587 -2.062224 106 56 29
0.894309 -1.032520 -2.028692 110 60 33
0.902439 -1.032520 -2.028692 110 60 33
0.903226 -1.024194 -2.012331 109 58 31
0.896825 -1.007936 -1.980390 109 59 30
0.936508 -1.007936 -1.980390 112 62 35
0.937500 -0.992188 -1.949446 108 61 33
0.952756 -1.000000 -1.964796 105 60 31
0.960630 -1.000000 -1.964796 106 60 32
1.050847 -1.076271 -2.114653 102 56 33
1.059322 -1.076271 -2.114653 102 57 34
1.067797 -1.076271 -2.114653 101 56 33
1.067227 -1.067227 -2.096883 100 56 31
1.084746 -1.076271 -2.114653 100 56 31
1.093220 -1.076271 -2.114653 97 53 28
1.111111 -1.085470 -2.132727 101 57 31
1.119658 -1.085470 -2.132727 99 54 28
1.137931 -1.094828 -2.151113 98 53 29
1.136752 -1.085470 -2.132727 101 56 33
1.145299 -1.085470 -2.132727 98 56 32
1.153846 -1.085470 -2.132727 97 56 32
1.162393 -1.085470 -2.132727 94 55 30
1.170940 -1.085470 -2.132727 97 59 34
1.189655 -1.094828 -2.151113 93 52 28
1.188034 -1.085470 -2.132727 92 51 27
1.196581 -1.085470 -2.132727 92 50 26
1.215517 -1.094828 -2.151113 91 49 25
1.203390 -1.076271 -2.114653 93 51 27
-1.500000 -1.641026 -3.199091 53 42 32
-1.526316 -1.684211 -3.283278 51 38 29
-1.493507 -1.662338 -3.240638 49 37 27
-1.500000 -1.684211 -3.283278 48 38 28
-1.506667 -1.706667 -3.327055 50 40 30
-1.493333 -1.706667 -3.327055 52 42 32
-1.441558 -1.662338 -3.240638 54 42 31
-1.392405 -1.620253 -3.158596 53 41 29
-1.379747 -1.620253 -3.158596 58 46 32
-1.384615 -1.641026 -3.199091 61 49 35
-1.337500 -1.600000 -3.119114 62 50 36
-1.325000 -1.600000 -3.119114 65 53 39
-1.312500 -1.600000 -3.119114 63 51 38
-1.316456 -1.620253 -3.158596 63 51 38
-1.303797 -1.620253 -3.158596 65 51 38
-1.275000 -1.600000 -3.119114 62 48 36
-1.253333 -1.706667 -3.327055 59 45 34
-1.240000 -1.706667 -3.327055 62 48 37
-1.243243 -1.729730 -3.372015 67 54 43
-1.229730 -1.729730 -3.372015 68 55 45
-1.232877 -1.753425 -3.418207 69 56 47
-1.219178 -1.753425 -3.418207 69 56 47
-1.222222 -1.777778 -3.465682 70 57 48
-1.191781 -1.753425 -3.418207 69 56 47
-1.194444 -1.777778 -3.465682 66 53 44
-1.180556 -1.777778 -3.465682 63 50 41
-1.183099 -1.802817 -3.514494 57 44 36
-1.169014 -1.802817 -3.514494 57 44 36
-1.154930 -1.802817 -3.514494 54 41 33
-1.140845 -1.802817 -3.514494 50 37 29
-1.126761 -1.802817 -3.514494 52 39 31
-1.112676 -1.802817 -3.514494 52 39 31
-1.098592 -1.802817 -3.514494 53 40 32
-1.084507 -1.802817 -3.514494 50 37 29
-1.055556 -1.777778 -3.465682 48 37 28
-1.056338 -1.802817 -3.514494 48 38 29
-1.057143 -1.828571 -3.564701 50 40 31
-1.042857 -1.828571 -3.564701 48 38 29
-1.028571 -1.828571 -3.564701 52 41 36
-1.014286 -1.828571 -3.564701 52 41 37
-0.985915 -1.802817 -3.514494 54 43 39
-0.971831 -1.802817 -3.514494 54 43 39
-0.931507 -1.753425 -3.418207 53 44 38
-0.893333 -1.706667 -3.327055 54 45 40
-0.835443 -1.620253 -3.158596 57 47 44
-0.812500 -1.600000 -3.119114 58 49 46
-0.780488 -1.560976 -3.043038 61 51 48
-0.750000 -1.523810 -2.970584 59 50 47
-0.729412 -1.505882 -2.935637 57 50 47
-0.717647 -1.505882 -2.935637 57 50 46
-0.705882 -1.505882 -2.935637 58 51 46
-0.694118 -1.505882 -2.935637 54 49 43
-0.674419 -1.488372 -2.901501 54 50 43
-0.662791 -1.488372 -2.901501 58 50 45
-0.651163 -1.488372 -2.901501 57 49 44
-0.639535 -1.488372 -2.901501 56 50 44
-0.627907 -1.488372 -2.901501 57 52 44
-0.609195 -1.471264 -2.868150 55 51 44
-0.597701 -1.471264 -2.868150 50 50 49
-0.593023 -1.488372 -2.901501 38 41 48
-0.574713 -1.471264 -2.868150 32 36 47
-0.563218 -1.471264 -2.868150 29 33 44
-0.558140 -1.488372 -2.901501 28 32 42
-0.546512 -1.488372 -2.901501 11 16 25
-0.534884 -1.488372 -2.901501 9 12 20
-0.523256 -1.488372 -2.901501 10 14 17
-0.517647 -1.505882 -2.935637 10 11 13
-0.500000 -1.488372 -2.901501 8 9 11
-0.488372 -1.488372 -2.901501 8 8 8
-0.476744 -1.488372 -2.901501 8 9 4
-0.470588 -1.505882 -2.935637 12 10 6
-0.458824 -1.505882 -2.935637 25 19 12
-0.447059 -1.505882 -2.935637 43 36 28
-0.435294 -1.505882 -2.935637 47 39 30
-0.423529 -1.505882 -2.935637 48 39 29
-0.411765 -1.505882 -2.935637 52 40 31
-0.404762 -1.523810 -2.970584 52 39 30
-0.402439 -1.560976 -3.043038 50 38 27
-0.372093 -1.488372 -2.901501 48 36 25
-0.352273 -1.454545 -2.835558 50 38 26
-0.312500 -1.333333 -2.599262 52 41 29
-0.278846 -1.230769 -2.399318 52 40 27
-0.252252 -1.153153 -2.248010 54 42 29
-0.225000 -1.066667 -2.079409 54 42 28
-0.203125 -1.000000 -1.949446 54 42 28
-0.183824 -0.941176 -1.834773 51 39 25
-0.169014 -0.901408 -1.757247 49 36 23
-0.152318 -0.847682 -1.652511 50 36 23
-0.138365 -0.805031 -1.569365 55 41 28
-0.127273 -0.775758 -1.512298 54 40 27
-0.121212 -0.775758 -1.512298 50 37 23
-0.114458 -0.771084 -1.503187 48 34 20
-0.107784 -0.766467 -1.494186 51 37 24
-0.101796 -0.766467 -1.494186 50 36 23
-0.095808 -0.766467 -1.494186 49 35 22
-0.089286 -0.761905 -1.485292 49 35 22
-0.083333 -0.761905 -1.485292 53 37 22
-0.077381 -0.761905 -1.485292 53 38 22
-0.071429 -0.761905 -1.485292 54 41 25
-0.065476 -0.761905 -1.485292 54 37 21
-0.059524 -0.761905 -1.485292 89 55 36
-0.053571 -0.761905 -1.485292 118 70 46
-0.047619 -0.761905 -1.485292 120 70 45
-0.041420 -0.757396 -1.476503 117 67 42
-0.035503 -0.757396 -1.476503 124 74 49
-0.029586 -0.757396 -1.476503 125 75 48
-0.023669 -0.757396 -1.476503 121 71 44
-0.017751 -0.757396 -1.476503 116 66 39
-0.011834 -0.757396 -1.476503 118 68 41
-0.005882 -0.752941 -1.467818 123 73 48
0.000000 -0.752941 -1.467818 126 76 51
0.005882 -0.752941 -1.467818 121 74 48
0.011765 -0.752941 -1.467818 121 74 48
0.017544 -0.748538 -1.459234 119 72 46
0.023392 -0.748538 -1.459234 106 57 32
0.029070 -0.744186 -1.450751 109 57 33
0.034682 -0.739884 -1.442365 110 58 33
0.040230 -0.735632 -1.434075 116 65 38
0.045977 -0.735632 -1.434075 120 69 39
0.051724 -0.735632 -1.434075 116 65 34
0.057143 -0.731429 -1.425881 118 65 34
0.062857 -0.731429 -1.425881 120 67 36
0.068571 -0.731429 -1.425881 119 66 35
0.074286 -0.731429 -1.425881 117 64 33
0.080000 -0.731429 -1.425881 118 66 39
0.085714 -0.731429 -1.425881 107 59 35
0.091429 -0.731429 -1.425881 112 67 42
0.097143 -0.731429 -1.425881 112 70 49
0.102857 -0.731429 -1.425881 107 67 47
0.108571 -0.731429 -1.425881 82 44 27
0.114286 -0.731429 -1.425881 82 45 27
0.120000 -0.731429 -1.425881 86 50 33
0.125714 -0.731429 -1.425881 84 48 33
0.131429 -0.731429 -1.425881 83 49 34
0.137931 -0.735632 -1.434075 82 49 33
0.143678 -0.735632 -1.434075 81 48 33
0.149425 -0.735632 -1.434075 77 45 30
0.158824 -0.752941 -1.467818 73 43 27
0.170732 -0.780488 -1.521519 71 42 26
0.176829 -0.780488 -1.521519 66 36 24
0.182927 -0.780488 -1.521519 67 37 26
0.190184 -0.785276 -1.530853 67 39 28
0.196319 -0.785276 -1.530853 63 35 24
0.202454 -0.785276 -1.530853 57 38 28
0.208589 -0.785276 -1.530853 18 10 5
0.216049 -0.790123 -1.540303 9 6 4
0.222222 -0.790123 -1.540303 7 7 7
0.228395 -0.790123 -1.540303 7 7 7
0.234568 -0.790123 -1.540303 6 6 6
0.242236 -0.795031 -1.549870 8 8 8
0.248447 -0.795031 -1.549870 7 7 7
0.254658 -0.795031 -1.549870 7 7 7
0.616438 -1.753425 -3.418207 8 8 8
0.630137 -1.753425 -3.418207 8 8 8
0.635135 -1.729730 -3.372015 10 10 10
0.801653 -1.057851 -2.062224 113 60 29
0.816667 -1.066667 -2.079409 115 62 33
0.825000 -1.066667 -2.079409 116 62 36
0.833333 -1.066667 -2.079409 112 58 32
0.841667 -1.066667 -2.079409 112 58 32
0.836066 -1.049180 -2.045321 108 56 30
0.844262 -1.049180 -2.045321 108 57 30
0.859504 -1.057851 -2.062224 105 54 27
0.853659 -1.040650 -2.028692 104 53 26
0.854839 -1.032258 -2.012331 106 55 28
0.869919 -1.040650 -2.028692 103 52 25
0.892562 -1.057851 -2.062224 104 53 26
0.900826 -1.057851 -2.062224 106 55 28
0.901639 -1.049180 -2.045321 107 56 29
0.902439 -1.040650 -2.028692 109 58 31
0.903226 -1.032258 -2.012331 109 58 31
0.896825 -1.015873 -1.980390 109 58 31
0.912698 -1.015873 -1.980390 110 60 33
0.913386 -1.007874 -1.964796 107 57 30
0.921260 -1.007874 -1.964796 107 57 30
0.936508 -1.015873 -1.980390 111 61 34
0.937008 -1.007874 -1.964796 108 61 33
0.944882 -1.007874 -1.964796 108 61 33
